0.4265678235853251 0.6070232897996902 0.8441301435822466
0.4243683163638754 0.6067746490240097 0.8441578323537207
0.42218040864300554 0.6065274685621261 0.8441829622845268
0.4168862719854254 0.6057826042175293 0.846508838821346
0.41475468998993514 0.6055432915687561 0.8465101727135202
0.4126305540267785 0.6053047984838485 0.8465117673273185
0.41051461177104387 0.6050672441720962 0.846513010325349
0.4084063768336882 0.6048305541276932 0.8465142513499722
0.4063053516497973 0.6045946538448334 0.8465158206863723
0.40421248664571585 0.60435970723629 0.8465169803354761
0.4021273837695126 0.6041256248950958 0.8465179945254309
0.4000503192083942 0.6038924813270569 0.8465186263707738
0.3979799370335041 0.603660038113594 0.8465198651939412
0.3959166571135877 0.6034283846616745 0.846521365345327
0.39386075191056147 0.6031975507736206 0.8465228834870759
0.3918128844876926 0.6029676556587219 0.8465238991484016
0.3897724247743988 0.6027385801076889 0.8465248707358078
0.3877384883297057 0.6025102198123932 0.8465264121198024
0.38571211391707005 0.6022827088832855 0.8465276998870989
0.3836929183857214 0.6020560175180435 0.846529024075413
0.38168103424132793 0.6018301457166672 0.8465302565634252
0.3809901418094165 0.6018184185028076 0.8455145554703277
0.416111160142566 0.607626473903656 0.8167096178007192
0.414022401840349 0.6073919892311096 0.8167107379087306
0.4119410586982878 0.6071583241224289 0.8167118268476067
0.4098660696011841 0.6069253295660019 0.8167136693162814
0.4077993205005659 0.6066933035850525 0.8167147635070398
0.40574023667027814 0.6064621716737747 0.8167155444764553
0.4036869098070509 0.6062316060066223 0.8167174753178906
0.40164264032605834 0.6060021430253982 0.8167179278678445
0.3996040980098039 0.6057732611894607 0.8167194786706815
0.39757279310962623 0.6055451840162277 0.8167209288611865
0.3955491822122461 0.6053180158138275 0.8167218771778626
0.393532506466704 0.6050916224718094 0.8167229166009251
0.39152236037048793 0.6048659294843673 0.8167242984537373
0.38951922286206053 0.6046410411596298 0.8167256601891547
0.3875239187777516 0.6044170618057251 0.8167262846983964
0.3855339874398779 0.6041936188936233 0.8167281088457506
0.38355243444995535 0.6039711892604828 0.816728709091219
0.3815762393053068 0.603749281167984 0.8167304831652317
0.4330152206632031 0.6064477771520614 0.8441927791574679
0.4308267738615408 0.6062044262886047 0.8441948024450957
0.4286220454070786 0.6059581398963928 0.8442146398686096
0.42642951353109304 0.6057133883237839 0.8442315221092341
0.4242602683240301 0.6054719448089599 0.8442372396304859
0.42210083510914653 0.6052316635847091 0.8442415937901248
0.4168862719854254 0.6045066773891449 0.846508838821346
0.414754789502918 0.6042697191238403 0.8465101066564834
0.41263045451379565 0.6040335208177566 0.8465118333843553
0.41051461177104387 0.6037982910871506 0.846513010325349
0.40840628104599563 0.6035638958215713 0.8465143238594011
0.4063053516497973 0.6033303201198578 0.8465158206863723
0.40421248664571585 0.603097653388977 0.8465169803354761
0.4021273837695126 0.6028658658266067 0.8465179945254309
0.4000503192083942 0.6026349872350693 0.8465186263707738
0.39797988913965776 0.6024048089981079 0.8465199014486557
0.39591617817512514 0.6021753460168838 0.8465217278924716
0.39386051616662054 0.6019468069076538 0.8465230712130403
0.3918128844876926 0.6017191916704178 0.8465238991484016
0.3897724247743988 0.6014923512935638 0.8465248707358078
0.3877384883297057 0.601266211271286 0.8465264121198024
0.38571211391707005 0.6010409355163574 0.8465276998870989
0.38369287421716547 0.6008164346218109 0.8465290667825196
0.3816809826221914 0.6005927681922912 0.8465302863657476
0.3809901418094165 0.6005811601877212 0.8455145554703277
0.416111160142566 0.6063325613737106 0.8167096178007192
0.414022401840349 0.6061003565788269 0.8167107379087306
0.41194096291059534 0.6058689564466476 0.8167118993570356
0.40986616538887666 0.6056382715702057 0.8167135968068525
0.4077993205005659 0.6054084956645965 0.8167147635070398
0.40574023667027814 0.605179613828659 0.8167155444764553
0.4036869098070509 0.6049512982368469 0.8167174753178906
0.40164264032605834 0.6047240704298019 0.8167179278678445
0.3996040980098039 0.6044974237680435 0.8167194786706815
0.39757279310962623 0.6042715817689895 0.8167209288611865
0.3955491822122461 0.604046618938446 0.8167218771778626
0.393532506466704 0.6038224309682846 0.8167229166009251
0.391522272033376 0.6035989284515381 0.8167243838679503
0.38951922286206053 0.6033762454986572 0.8167256601891547
0.3875239187777516 0.603154456615448 0.8167262846983964
0.3855339874398779 0.6029331892728805 0.8167281088457506
0.38355243444995535 0.6027129352092743 0.816728709091219
0.3815762393053068 0.6024931877851486 0.8167304831652317
0.43294910369536044 0.6051423907279968 0.8442408626808693
0.43078134279426783 0.6049046725034714 0.8442279318419355
0.42860946262189037 0.6046659409999847 0.844223840260646
0.4264684922254992 0.604431664943695 0.8442029525009804
0.4243398056748414 0.6041989684104919 0.8441787838725899
0.4222192282197841 0.6039671659469604 0.8441543554950368
0.4168862719854254 0.6032307505607605 0.846508838821346
0.41475468998993514 0.602996101975441 0.8465101727135202
0.41263045451379565 0.6027622431516647 0.8465118333843553
0.41051461177104387 0.6025293529033661 0.846513010325349
0.40840628104599563 0.6022972673177719 0.8465143238594011
0.4063053516497973 0.6020659863948822 0.8465158206863723
0.40421248664571585 0.6018356144428253 0.8465169803354761
0.4021273837695126 0.6016061067581177 0.8465179945254309
0.4000503671022404 0.6013775080442428 0.8465185901160593
0.39797988913965776 0.6011495947837829 0.8465199014486557
0.39591617817512514 0.6009223818778991 0.8465217278924716
0.39386051616662054 0.6006960928440094 0.8465230712130403
0.3918128844876926 0.6004707127809524 0.8465238991484016
0.3897724247743988 0.6002461224794388 0.8465248707358078
0.3877384883297057 0.60002221763134 0.8465264121198024
0.38571211391707005 0.5997991472482681 0.8465276998870989
0.38369287421716547 0.5995768666267395 0.8465290667825196
0.3816809826221914 0.5993553981184959 0.8465302863657476
0.3809901418094165 0.5993439093232155 0.8455145554703277
0.41611106435487355 0.605038633942604 0.8167096903101481
0.414022401840349 0.6048087239265442 0.8167107379087306
0.41194096291059534 0.6045796185731888 0.8167118993570356
0.40986616538887666 0.6043511986732483 0.8167135968068525
0.4077993205005659 0.6041236877441406 0.8167147635070398
0.40574023667027814 0.6038970559835434 0.8167155444764553
0.4036869098070509 0.6036709904670715 0.8167174753178906
0.40164264032605834 0.6034459978342056 0.8167179278678445
0.3996040980098039 0.6032215863466263 0.8167194786706815
0.39757279310962623 0.6029979646205902 0.8167209288611865
0.3955491822122461 0.6027752220630646 0.8167218771778626
0.393532506466704 0.602553254365921 0.8167229166009251
0.391522272033376 0.60233194231987 0.8167243838679503
0.38951922286206053 0.6021114498376846 0.8167256601891547
0.3875239187777516 0.6018918514251709 0.8167262846983964
0.3855339874398779 0.6016727596521377 0.8167281088457506
0.3835523902813993 0.6014546662569046 0.8167287517983255
0.3815761951367508 0.6012370944023132 0.8167305258723382
0.4330621406999281 0.6038649290800094 0.8441586524526835
0.43091570161578485 0.6036328881978988 0.8441299615780343
0.42878020907497005 0.6034021735191345 0.8440990114190571
0.42666898981247015 0.6031748861074447 0.8440559827939316
0.42455232780758645 0.6029463768005371 0.8440226005487929
0.422476293769262 0.602723827958107 0.8439649358300396
0.4168862719854254 0.6019548237323761 0.846508838821346
0.41475468998993514 0.601722514629364 0.8465101727135202
0.41263045451379565 0.601490980386734 0.8465118333843553
0.4105145159833513 0.6012603849172592 0.8465130828347779
0.4084063768336882 0.6010306388139725 0.8465142513499722
0.40630525586210475 0.6008016228675842 0.8465158931958012
0.40421243875186963 0.6005735605955124 0.8465170165901905
0.4021273358756664 0.6003463327884674 0.8465180307801453
0.4000503192083942 0.6001200139522552 0.8465186263707738
0.39797988913965776 0.5998943731188774 0.8465199014486557
0.39591617817512514 0.5996694251894951 0.8465217278924716
0.3938604645474839 0.599445378780365 0.8465231010153627
0.3918128844876926 0.5992222562432289 0.8465238991484016
0.3897724247743988 0.5989998936653137 0.8465248707358078
0.3877384883297057 0.5987782090902328 0.8465264121198024
0.385712069748514 0.5985573589801788 0.8465277425942054
0.38369283004860955 0.5983372911810875 0.8465291094896261
0.3816809826221914 0.5981180354952812 0.8465302863657476
0.3809901418094165 0.5981066584587097 0.8455145554703277
0.416111160142566 0.6037447214126587 0.8167096178007192
0.41402211447727144 0.6035170465707779 0.8167109554370173
0.41194038818444023 0.6032901763916015 0.8167123344136091
0.4098660696011841 0.6030640959739685 0.8167136693162814
0.4077993205005659 0.6028388649225235 0.8167147635070398
0.40574023667027814 0.6026144981384277 0.8167155444764553
0.4036869098070509 0.6023906677961349 0.8167174753178906
0.40164264032605834 0.6021679401397705 0.8167179278678445
0.3996040980098039 0.601945748925209 0.8167194786706815
0.39757279310962623 0.601724362373352 0.8167209288611865
0.3955491822122461 0.6015038400888443 0.8167218771778626
0.393532506466704 0.6012840628623962 0.8167229166009251
0.39152236037048793 0.6010649859905243 0.8167242984537373
0.38951922286206053 0.6008466690778732 0.8167256601891547
0.3875239187777516 0.6006292462348938 0.8167262846983964
0.3855339874398779 0.6004123449325561 0.8167281088457506
0.38355243444995535 0.6001964271068573 0.816728709091219
0.3815761951367508 0.5999810010194778 0.8167305258723382
0.43334357630845655 0.6026128888130188 0.843953984090582
0.4312370205717253 0.6023893415927887 0.8438956679082781
0.42912267103392554 0.6021642297506332 0.8438486479987661
0.42702637122986187 0.6019415467977524 0.8437940289167547
0.4249359066239551 0.6017194151878357 0.8437406952069963
0.4228706832793041 0.6015008002519607 0.8436743370223541
0.4168862719854254 0.6006788969039917 0.846508838821346
0.41475468998993514 0.6004489123821258 0.8465101727135202
0.41263045451379565 0.6002197176218033 0.8465118333843553
0.41051461177104387 0.5999914467334747 0.846513010325349
0.4084063768336882 0.5997639954090118 0.8465142513499722
0.4063053516497973 0.5995373040437698 0.8465158206863723
0.40421243875186963 0.5993115067481994 0.8465170165901905
0.4021273358756664 0.5990865662693977 0.8465180307801453
0.4000503192083942 0.5988625273108482 0.8465186263707738
0.39797988913965776 0.5986391514539718 0.8465199014486557
0.39591617817512514 0.598416468501091 0.8465217278924716
0.39386051616662054 0.5981946796178818 0.8465230712130403
0.3918128844876926 0.5979737922549248 0.8465238991484016
0.3897724247743988 0.5977536648511886 0.8465248707358078
0.3877384883297057 0.5975342079997062 0.8465264121198024
0.385712069748514 0.5973155781626701 0.8465277425942054
0.38369283004860955 0.5970977157354355 0.8465291094896261
0.3816809826221914 0.5968806654214859 0.8465302863657476
0.3809903333848015 0.5968694373965263 0.8455144104514699
0.41611106435487355 0.6024507939815521 0.8167096903101481
0.4140217387770819 0.6022253692150116 0.8167112583795172
0.41194010827194316 0.6020007789134979 0.81671256484668
0.4098660696011841 0.6017770230770111 0.8167136693162814
0.40779922471287344 0.6015540421009063 0.8167148360164687
0.4057403324579707 0.6013319551944732 0.8167154719670264
0.4036869098070509 0.6011103600263595 0.8167174753178906
0.40164264032605834 0.6008898675441742 0.8167179278678445
0.3996040980098039 0.6006699115037918 0.8167194786706815
0.39757279310962623 0.6004507452249527 0.8167209288611865
0.3955491822122461 0.6002324432134628 0.8167218771778626
0.393532506466704 0.6000148713588714 0.8167229166009251
0.391522272033376 0.5997979775071144 0.8167243838679503
0.38951922286206053 0.5995818734169006 0.8167256601891547
0.38752377137092253 0.5993666186928749 0.8167263870101477
0.3855339874398779 0.5991519153118133 0.8167281088457506
0.38355243444995535 0.5989381656050682 0.816728709091219
0.3815761951367508 0.598724915087223 0.8167305258723382
0.43377614797012987 0.601382902264595 0.8436393964865635
0.43168669245702107 0.6011642575263977 0.8435677834161562
0.4296094537344203 0.6009471178054809 0.8434927733339669
0.42754246761970316 0.6007312148809433 0.8434157325474767
0.4254832063799612 0.6005161315202713 0.8433384817779169
0.42344845628298267 0.6003044605255127 0.8432486108612024
0.4168862719854254 0.5994029626250267 0.846508838821346
0.41475468998993514 0.5991753250360489 0.8465101727135202
0.41263045451379565 0.5989484474062919 0.8465118333843553
0.41051461177104387 0.5987225010991096 0.846513010325349
0.4084063768336882 0.5984973594546318 0.8465142513499722
0.4063053516497973 0.5982729703187942 0.8465158206863723
0.40421248664571585 0.5980494752526283 0.8465169803354761
0.4021273358756664 0.5978268072009086 0.8465180307801453
0.4000503192083942 0.5976050406694412 0.8465186263707738
0.39797988913965776 0.5973839297890663 0.8465199014486557
0.39591617817512514 0.5971635043621063 0.8465217278924716
0.39386051616662054 0.5969439730048179 0.8465230712130403
0.3918128844876926 0.5967253282666206 0.8465238991484016
0.38977237315526225 0.596507428586483 0.8465249005381302
0.3877384883297057 0.5962902069091797 0.8465264121198024
0.385712069748514 0.5960737973451614 0.8465277425942054
0.38369283004860955 0.595858147740364 0.8465291094896261
0.3816809826221914 0.5956433027982712 0.8465302863657476
0.3809905249601865 0.5956322088837623 0.8455142654326121
0.41611106435487355 0.6011568814516067 0.8167096903101481
0.4140218345647745 0.60093375146389 0.8167111858700883
0.41194010827194316 0.6007114261388778 0.81671256484668
0.4098660696011841 0.6004899501800537 0.8167136693162814
0.40779922471287344 0.6002692341804504 0.8167148360164687
0.40574023667027814 0.6000493824481964 0.8167155444764553
0.4036869098070509 0.5998300597071647 0.8167174753178906
0.40164264032605834 0.5996117949485779 0.8167179278678445
0.3996040980098039 0.5993940740823746 0.8167194786706815
0.39757279310962623 0.5991771355271339 0.8167209288611865
0.3955491822122461 0.5989610463380813 0.8167218771778626
0.393532506466704 0.5987456873059273 0.8167229166009251
0.391522272033376 0.5985309988260269 0.8167243838679503
0.38951903128667553 0.5983170554041862 0.8167258052080126
0.38752330733362106 0.5981039389967918 0.8167267753668606
0.3855339874398779 0.5978914856910705 0.8167281088457506
0.38355243444995535 0.5976799115538597 0.816728709091219
0.3815761951367508 0.5974688217043876 0.8167305258723382
0.4323129634349314 0.5999642893671989 0.8431111404553112
0.43026330570277593 0.5997536018490791 0.8430147606619567
0.42823043649333736 0.5995451122522354 0.8429114582374877
0.4262091971025256 0.5993380457162857 0.842804934229011
0.4241923252223051 0.5991313144564628 0.8427004913434619
0.4168862719854254 0.5981270357966423 0.846508838821346
0.41475468998993514 0.5979017302393913 0.8465101727135202
0.41263045451379565 0.5976771846413612 0.8465118333843553
0.4105145159833513 0.5974535405635834 0.8465130828347779
0.4084063768336882 0.5972307160496712 0.8465142513499722
0.4063053516497973 0.597008629143238 0.8465158206863723
0.40421248664571585 0.596787428855896 0.8465169803354761
0.4021273358756664 0.5965670481324196 0.8465180307801453
0.4000499839514703 0.59634750187397 0.846518880153775
0.39797988913965776 0.5961287081241607 0.8465199014486557
0.39591617817512514 0.5959105476737022 0.8465217278924716
0.3938604645474839 0.5956932589411735 0.8465231010153627
0.3918128844876926 0.5954768568277359 0.8465238991484016
0.3897724247743988 0.5952612072229385 0.8465248707358078
0.3877384883297057 0.5950462058186531 0.8465264121198024
0.385712069748514 0.5948320165276527 0.8465277425942054
0.38369283004860955 0.5946185797452926 0.8465291094896261
0.3816809826221914 0.5944059327244758 0.8465302863657476
0.38099061329729844 0.5943949729204178 0.8455141800183991
0.41611106435487355 0.5998629614710808 0.8167096903101481
0.4140218345647745 0.5996421262621879 0.8167111858700883
0.41194010827194316 0.5994220808148384 0.81671256484668
0.4098660696011841 0.5992028698325157 0.8167136693162814
0.40779922471287344 0.5989844188094139 0.8167148360164687
0.40574023667027814 0.5987668246030807 0.8167155444764553
0.4036869098070509 0.5985497519373894 0.8167174753178906
0.40164264032605834 0.5983337223529815 0.8167179278678445
0.39960400222211145 0.5981182217597961 0.8167195511801104
0.39757279310962623 0.5979035183787346 0.8167209288611865
0.3955491822122461 0.5976896494626999 0.8167218771778626
0.393532506466704 0.5974765032529831 0.8167229166009251
0.39152236037048793 0.59726402759552 0.8167242984537373
0.389518847161871 0.5970522299408912 0.8167259631316546
0.3875228358457391 0.5968412593007087 0.8167271508187892
0.3855339874398779 0.5966310635209083 0.8167281088457506
0.3835523902813993 0.59642164260149 0.8167287517983255
0.3815761951367508 0.5962127357721329 0.8167305258723382
0.4331267692734201 0.5987902492284775 0.8425177390320376
0.43110861503195774 0.5985865205526352 0.8423967699169177
0.429106814008378 0.5983849078416824 0.8422690778749099
0.42711050387066796 0.5981838017702102 0.8421425516759382
0.4251245075310661 0.5979839250445366 0.8420136239200855
0.4168862719854254 0.5968511089682579 0.846508838821346
0.41475468998993514 0.5966281354427337 0.8465101727135202
0.41263045451379565 0.5964059144258499 0.8465118333843553
0.41051461177104387 0.5961846023797989 0.846513010325349
0.40840628104599563 0.5959640651941299 0.8465143238594011
0.4063053516497973 0.5957442879676819 0.8465158206863723
0.40421248664571585 0.5955253824591636 0.8465169803354761
0.4021273358756664 0.5953072816133499 0.8465180307801453
0.4000494571191615 0.5950899332761764 0.846519278955634
0.397979553882734 0.5948734417557716 0.8465201552316569
0.39591617817512514 0.5946575909852981 0.8465217278924716
0.3938604645474839 0.5944425523281097 0.8465231010153627
0.39181284031913655 0.5942283853888511 0.8465239418555082
0.3897724247743988 0.5940149784088135 0.8465248707358078
0.3877384883297057 0.5938022047281265 0.8465264121198024
0.385712069748514 0.5935902282595634 0.8465277425942054
0.38369283004860955 0.5933790042996406 0.8465291094896261
0.38168103424132793 0.5931685701012611 0.8465302565634252
0.3809906649164351 0.5931577295064926 0.8455141502160767
0.41611106435487355 0.5985690489411354 0.8167096903101481
0.4140218345647745 0.5983504936099052 0.8167111858700883
0.41194010827194316 0.5981327354907989 0.81671256484668
0.4098660696011841 0.5979157969355583 0.8167136693162814
0.40779922471287344 0.5976996034383774 0.8167148360164687
0.40574023667027814 0.5974842667579651 0.8167155444764553
0.4036869098070509 0.597269444167614 0.8167174753178906
0.40164264032605834 0.5970556572079658 0.8167179278678445
0.3996040980098039 0.5968423992395401 0.8167194786706815
0.39757279310962623 0.5966299086809158 0.8167209288611865
0.3955491822122461 0.5964182525873184 0.8167218771778626
0.393532506466704 0.5962073192000389 0.8167229166009251
0.391522272033376 0.5959970265626907 0.8167243838679503
0.389518847161871 0.5957874417304992 0.8167259631316546
0.38752274005804654 0.595578646659851 0.8167272233282181
0.3855339874398779 0.5953706339001655 0.8167281088457506
0.38355243444995535 0.5951633960008621 0.816728709091219
0.3815761951367508 0.5949566423892975 0.8167305258723382
0.4321812989355016 0.5974502623081207 0.8416125582447135
0.4301993594534804 0.597253805398941 0.8414682458258739
0.42822355529414435 0.5970579519867897 0.8413245465173235
0.42625417382057096 0.5968627467751503 0.8411812427907756
0.4168863677731178 0.5955751970410347 0.8465087663119171
0.41475468998993514 0.5953545480966568 0.8465101727135202
0.4126305540267785 0.5951346665620804 0.8465117673273185
0.41051461177104387 0.5949156567454338 0.846513010325349
0.40840628104599563 0.5946974292397499 0.8465143238594011
0.4063053516497973 0.5944799542427063 0.8465158206863723
0.40421248664571585 0.5942633360624313 0.8465169803354761
0.4021273358756664 0.5940475225448608 0.8465180307801453
0.4000490739683914 0.5938323870301246 0.8465195689933497
0.397979553882734 0.5936182200908661 0.8465201552316569
0.39591617817512514 0.5934046268463135 0.8465217278924716
0.3938604645474839 0.5931918457150459 0.8465231010153627
0.39181284031913655 0.592979921400547 0.8465239418555082
0.38977237315526225 0.5927687421441078 0.8465249005381302
0.3877384883297057 0.5925582036375999 0.8465264121198024
0.385712069748514 0.5923484474420547 0.8465277425942054
0.38369283004860955 0.5921394363045692 0.8465291094896261
0.3816809826221914 0.5919312000274658 0.8465302863657476
0.38099061329729844 0.5919204637408256 0.8455141800183991
0.41611106435487355 0.5972751289606094 0.8167096903101481
0.4140218345647745 0.5970588684082031 0.8167111858700883
0.4119400124842507 0.5968433752655983 0.8167126373561089
0.4098660696011841 0.5966287240386009 0.8167136693162814
0.4077993205005659 0.5964148104190826 0.8167147635070398
0.4057401408825856 0.5962016940116882 0.8167156169858842
0.4036869098070509 0.5959891363978386 0.8167174753178906
0.40164264032605834 0.5957775846123695 0.8167179278678445
0.39960400222211145 0.5955665469169616 0.8167195511801104
0.39757279310962623 0.595356298983097 0.8167209288611865
0.3955491822122461 0.5951468557119369 0.8167218771778626
0.393532506466704 0.5949381276965141 0.8167229166009251
0.391522272033376 0.5947300404310226 0.8167243838679503
0.389518847161871 0.5945226535201072 0.8167259631316546
0.38752274005804654 0.594316041469574 0.8167272233282181
0.3855339874398779 0.5941102117300033 0.8167281088457506
0.38355243444995535 0.5939051419496536 0.816728709091219
0.3815761951367508 0.5937005490064621 0.8167305258723382
0.43339549593517923 0.5963312596082687 0.8407248864823028
0.4314836996368402 0.5961472451686859 0.8405268279657657
0.4295677835130858 0.595962344110012 0.8403366540727741
0.4276323097744036 0.5957742989063263 0.8401657727401926
0.41688598089705753 0.5942992106080055 0.8465090498972406
0.41475449841455014 0.5940809234976768 0.8465103177323781
0.41263045451379565 0.5938633888959884 0.8465118333843553
0.4105145159833513 0.5936466887593269 0.8465130828347779
0.4084063768336882 0.5934308007359504 0.8465142513499722
0.40630525586210475 0.5932155981659889 0.8465158931958012
0.40421243875186963 0.5930012822151184 0.8465170165901905
0.4021273358756664 0.5927877560257911 0.8465180307801453
0.4000490739683914 0.5925749078392982 0.8465195689933497
0.397979553882734 0.5923629984259605 0.8465201552316569
0.39591617817512514 0.5921516701579094 0.8465217278924716
0.39386051616662054 0.5919411391019821 0.8465230712130403
0.39181284031913655 0.5917314574122429 0.8465239418555082
0.3897724247743988 0.5915225133299827 0.8465248707358078
0.3877384883297057 0.5913142025470733 0.8465264121198024
0.385712069748514 0.591106666624546 0.8465277425942054
0.38369287421716547 0.5908998683094978 0.8465290667825196
0.3816809826221914 0.5906938299536705 0.8465302863657476
0.38099061329729844 0.5906832128763199 0.8455141800183991
0.38098965217968384 0.5907747730612755 0.8439633905961461
0.38098861384321914 0.5908664748072624 0.84241020245042
0.3809876382441528 0.5909583255648613 0.8408545003646852
0.4098660696011841 0.5953416436910629 0.8167136693162814
0.40779922471287344 0.5951299801468849 0.8167148360164687
0.4057401408825856 0.5949191361665725 0.8167156169858842
0.4036869098070509 0.5947088286280632 0.8167174753178906
0.40164264032605834 0.5944995120167732 0.8167179278678445
0.39960400222211145 0.594290716946125 0.8167195511801104
0.39757279310962623 0.5940826892852783 0.8167209288611865
0.3955491822122461 0.5938754588365555 0.8167218771778626
0.393532506466704 0.5936689436435699 0.8167229166009251
0.391522272033376 0.5934630542993545 0.8167243838679503
0.389518847161871 0.5932578653097152 0.8167259631316546
0.38752274005804654 0.5930534362792969 0.8167272233282181
0.3855339874398779 0.5928497821092605 0.8167281088457506
0.3835523902813993 0.5926468804478645 0.8167287517983255
0.3815761951367508 0.5924444630742073 0.8167305258723382
0.4330405995926754 0.5950759708881378 0.8393856339237761
0.43118822047297867 0.5949023798108101 0.8391457689019753
0.4293347234040923 0.5947283640503883 0.8389113585113297
0.41688549823330456 0.5930232167243957 0.8465094059919931
0.41475411153848973 0.5928072765469551 0.8465106013177017
0.4126305540267785 0.5925921335816383 0.8465117673273185
0.41051461177104387 0.592377758026123 0.846513010325349
0.40840628104599563 0.5921641498804092 0.8465143238594011
0.4063053516497973 0.5919512793421745 0.8465158206863723
0.40421248664571585 0.5917392432689667 0.8465169803354761
0.40212728798182007 0.5915279895067215 0.8465180670348598
0.4000490739683914 0.5913174211978912 0.8465195689933497
0.3979794580950414 0.5911077693104744 0.8465202277410858
0.39591617817512514 0.5908987134695053 0.8465217278924716
0.3938604645474839 0.5906904250383377 0.8465231010153627
0.3918128844876926 0.5904830008745193 0.8465238991484016
0.38977237315526225 0.5902762770652771 0.8465249005381302
0.38773857666681766 0.5900702089071274 0.8465263267055894
0.385712069748514 0.5898648858070373 0.8465277425942054
0.3848006463089948 0.5898223727941513 0.8456760491374296
0.38417783909573777 0.5898220598697662 0.8446026798187779
0.38355761069959826 0.5898221269249916 0.8435273398407613
0.38293865681085637 0.5898223727941513 0.8424509887234941
0.3823190398588473 0.5898225292563438 0.8413751580770135
0.38169762529242224 0.5898224174976349 0.8403007438240345
0.3810762474439725 0.5898223131895065 0.8392262739591649
0.38098553627600096 0.5899002835154533 0.8377358017037988
0.38098468981941236 0.5899916052818298 0.8361725746955764
0.3809837512428126 0.590083061158657 0.8346069231543124
0.38098281633389386 0.5901746585965156 0.8330387745705781
0.38098193671179303 0.5902664124965668 0.8314680991420509
0.38098086173140766 0.5903582856059074 0.8298950587851269
0.38097997454350785 0.5904503375291824 0.8283193634620907
0.3809790319535722 0.5905425235629082 0.8267411879941222
0.38097817391784894 0.590634873509407 0.8251604171646862
0.38097712052384136 0.5907273352146148 0.8235772814068534
0.3809761958526021 0.5908199682831764 0.8219915075804466
0.38097520832874643 0.5909127429127693 0.8204032407043234
0.38097444531535163 0.5910056963562965 0.8188122632501972
0.3815760035613658 0.5911883398890495 0.8167306708911961
0.43323746722069245 0.5938985556364059 0.8376397408349913
0.43146175396074193 0.5937377572059631 0.8373440758814075
0.41688530665791956 0.5917472600936889 0.846509551010851
0.41475411153848973 0.5915336817502975 0.8465106013177017
0.4126305540267785 0.591320863366127 0.8465117673273185
0.41051461177104387 0.5911088049411773 0.846513010325349
0.40840628104599563 0.5908975064754486 0.8465143238594011
0.40630544743748986 0.5906869530677795 0.8465157481769434
0.40421243875186963 0.5904771894216537 0.8465170165901905
0.40212704851258885 0.5902681931853294 0.8465182483084321
0.4000490739683914 0.5900599345564842 0.8465195689933497
0.397978643899655 0.5898524358868599 0.8465208440712316
0.39714375702102234 0.5898225739598274 0.8455909538026221
0.39651626593278666 0.5898225665092468 0.8445042265657908
0.3958884395876273 0.5898225143551826 0.8434177531119609
0.3952602742602537 0.5898224100470543 0.84233152698874
0.39463082697490204 0.589822119474411 0.8412462990999857
0.3940015712649354 0.5898218587040901 0.8401609261923736
0.3933756532230458 0.589822082221508 0.8390729896451811
0.39275130450221185 0.5898225292563438 0.8379838373352354
0.3921251432658007 0.5898227155208587 0.8368960756092232
0.39149731692064127 0.589822655916214 0.8358096021553931
0.39086811282981115 0.5898224025964737 0.8347241994454586
0.3902397633776332 0.5898222759366035 0.8336381312458797
0.3896105667373837 0.5898220151662826 0.8325527414407293
0.3889818932041528 0.5898218363523483 0.8314669463813279
0.38835397852188136 0.5898217692971229 0.830380558341711
0.387726535327492 0.5898217692971229 0.8292937948501653
0.38710098553521133 0.589822044968605 0.8282055424556889
0.38647528833610156 0.5898222982883453 0.8271173923729638
0.3858483166295942 0.5898223653435707 0.8260302534294894
0.38521945897155885 0.5898221641778946 0.82494461629373
0.38459050552583096 0.5898219406604767 0.8238590516673994
0.3839626866312521 0.5898218885064125 0.8227725911183534
0.38333486773667325 0.5898218289017677 0.8216861305693076
0.3827088831744859 0.589822044968605 0.8205981980148693
0.3820832301439321 0.5898223057389259 0.8195100052250377
0.3814567224747262 0.5898224472999573 0.8184224779248505
0.38097356037962316 0.5898436591029167 0.8172188096438929
0.4168854024456121 0.5904713481664657 0.846509478501422
0.4147542110514726 0.5902601018548012 0.8465105352606648
0.4126305540267785 0.5900496006011963 0.8465117673273185
0.4105147075587364 0.5898398742079735 0.8465129378159201
0.4097567218037149 0.5898223578929901 0.8455061974323759
0.40912234584408014 0.5898223578929901 0.8444074260391881
0.408486525618477 0.589822156727314 0.84330972938265
0.4078521496588422 0.589822156727314 0.8422109579894623
0.4072177736992074 0.589822156727314 0.8411121865962746
0.4065836851026502 0.589822193980217 0.8400131976748001
0.40594920963003256 0.5898221790790558 0.8389144923386492
0.4053150289710731 0.5898222088813782 0.8378155823789958
0.4046818945261508 0.5898223876953125 0.8367158619108401
0.40404942314449555 0.589822655916214 0.8356156209718979
0.4034156181857256 0.5898227378726005 0.8345164080697447
0.40278095113772294 0.5898227006196975 0.8334178477524516
0.40214581260183835 0.5898225888609886 0.8323196628870874
0.40151009933979853 0.5898224025964737 0.8312219130782965
0.4008743860777587 0.5898222088813782 0.8301241632695057
0.40024001384341423 0.5898222088813782 0.82902539832871
0.3996053542459922 0.5898221716284752 0.8279268509162011
0.39897050307318516 0.5898220971226692 0.8268284485225501
0.3983361233882601 0.5898220971226692 0.8257296706769703
0.39770193527872 0.5898221269249916 0.8246307478125328
0.39706813031995003 0.5898222088813782 0.8235315349103794
0.39643375063502495 0.5898222088813782 0.8224327570647997
0.39579758078626437 0.5898219481110573 0.8213354085175059
0.3951608436619293 0.5898216128349304 0.8202385079315697
0.3945274144033488 0.5898217469453811 0.8191389920869165
0.3938953038207218 0.5898220747709274 0.8180384223959063
0.39326308999982174 0.5898223876953125 0.8169379123095408
0.4181624265764421 0.5898223057389259 0.8376413225519244
0.417521440327832 0.5898223727941513 0.836529909709483
0.41687920883921903 0.5898222610354423 0.8354194394896177
0.41623582417300564 0.5898219928145408 0.8343098329305072
0.41559502949978044 0.5898220896720886 0.8331982750692082
0.414952702223475 0.589821970462799 0.8320878773587717
0.4143113402746754 0.5898219779133796 0.8309767674588302
0.41367112032760545 0.589822156727314 0.8298647745409576
0.4130300382913028 0.5898222088813782 0.8287534342079453
0.4123880941657674 0.5898221418261528 0.8276427464597932
0.4117447206754248 0.5898218736052513 0.826533159257859
0.4111031597006596 0.5898218587040901 0.8254221814719912
0.41046103145031976 0.5898217618465423 0.8243116516474811
0.4098199494140171 0.5898218214511871 0.8232003113144687
0.409179817804059 0.589822007715702 0.8220882329823831
0.40854110810832756 0.5898223951458931 0.8209750411992954
0.40790049755990687 0.5898225218057632 0.8198633254143544
0.4072557096059183 0.589822044968605 0.8187548645682062
0.40661121646558784 0.5898216128349304 0.8176461990985555
0.40596984706620765 0.5898216277360916 0.8165350762938299
0.4091148636993317 0.6247590392827987 0.8522501203471518
0.41019966857920565 0.6235783010721206 0.8530108743794056
0.40808368481035007 0.6233059972524643 0.853011926265312
0.40597469367746997 0.6230345577001571 0.85301352645092
0.4038739883144141 0.6227642059326172 0.8530146960589392
0.4029963523086807 0.6227184295654297 0.8521108979334349
0.4037681323618545 0.6229762345552444 0.8499767625232394
0.40454319301867736 0.6232350528240204 0.847834719426235
0.40532253632463056 0.623495078086853 0.8456840008410259
0.40610576050249236 0.6237562209367752 0.8435248645433673
0.4068835959629026 0.6240167677402496 0.8413642625264052
0.4076694641586849 0.6242792218923569 0.8391920628272675
0.40846143443482774 0.624543210864067 0.8370096898249644
0.40925115463563044 0.6248072147369385 0.8348234195778511
0.41019928170314524 0.6223137438297272 0.8530111579647291
0.4080832021465972 0.6220437347888946 0.8530122823600644
0.4059745978897774 0.6217746645212173 0.8530135989603489
0.4038733619691224 0.621506518125534 0.8530151609178351
0.40178078379319093 0.6212395340204239 0.8530159829028408
0.399695017318793 0.6209733694791794 0.8530173974277707
0.3976169650784269 0.6207082033157348 0.8530187027482662
0.39694387490355154 0.6206994712352752 0.8519713704011201
0.39770324991561623 0.620952820777893 0.8498465048261579
0.39846548566258455 0.621207109093666 0.847714077213993
0.3992263525848243 0.6214615315198898 0.8455772521699293
0.39999303103398454 0.6217174142599106 0.8434305850344062
0.4007589004834101 0.6219735652208328 0.8412790596008426
0.40152993276272264 0.6222310572862625 0.839118118220363
0.40230161839979284 0.6224890857934952 0.8369511559313423
0.4030784370644275 0.6227484554052353 0.8347747260762691
0.40385960755392525 0.6230090469121933 0.8325893829210064
0.4046402595971287 0.6232699513435364 0.8303988502559971
0.4054236201732613 0.6235317647457123 0.8282006111415217
0.4062109196211644 0.6237947255373001 0.8259936971454358
0.406999100185258 0.6240582525730133 0.823780441474249
0.407792044457452 0.6243230909109115 0.8215577938126708
0.4085893618363956 0.6245891511440277 0.8193260312936329
0.40938705159074484 0.6248557180166244 0.817088238027502
0.3995548059851204 0.6185702592134475 0.8685267405860037
0.39738747972778543 0.6182924717664718 0.8685773858677346
0.4101988948270848 0.6210491716861725 0.8530114415500527
0.408082671588998 0.6207814574241638 0.8530126747095315
0.40597469367746997 0.6205148160457611 0.85301352645092
0.40387345775681494 0.6202489644289017 0.8530150884084062
0.4017805405986693 0.6199842154979706 0.853016157724021
0.39969496569965635 0.6197203755378723 0.8530174272300931
0.39761662609621273 0.6194574296474457 0.8530189500788754
0.3955464684893928 0.619195556640625 0.8530199818189023
0.39348328063187865 0.6189345329999923 0.8530214030084671
0.39142724292318454 0.6186743885278702 0.8530230492715356
0.39095944300628405 0.6187024027109146 0.851829180553913
0.3917006955180108 0.6189502984285354 0.8497179869990554
0.39244611307436095 0.619199326634407 0.8475982718868809
0.39319515766715507 0.6194494128227234 0.8454704146620724
0.3939466244996559 0.6197003483772278 0.8433353087877071
0.3947015448847393 0.6199522972106933 0.8411921179457147
0.39545456961278547 0.6202043056488037 0.8390449284736825
0.3962157558565813 0.6204581916332245 0.8368860067457632
0.39697507571073465 0.6207121521234512 0.8347230178711293
0.39773723713841247 0.6209670215845108 0.8325523145615211
0.3985035146470124 0.6212230682373047 0.8303728856776877
0.39927213988951304 0.6214799344539642 0.8281860790964561
0.400044991366862 0.6217379927635193 0.8259903801053275
0.40082186260251274 0.621997183561325 0.8237859079135913
0.4015988635539751 0.6222568213939667 0.8215756999317536
0.402377497022007 0.6225171744823456 0.8193585443898155
0.4031620138481271 0.622779032588005 0.8171310751252024
0.40312232927582603 0.6177403539419174 0.8689981313989997
0.3998382510430506 0.6172670930624008 0.8698484513663723
0.39765224452328196 0.6169885456562042 0.8699103720844451
0.3959540867679764 0.6167964845895767 0.8696225561490994
0.3944380790923211 0.6166365951299667 0.8692057019655762
0.39308997623861197 0.6165064185857773 0.8686692298805759
0.3929621267876173 0.6165939331054687 0.8672387675211094
0.3932632445796791 0.6167582333087921 0.8654903355443974
0.39353480485692993 0.6169175118207931 0.8637602074660954
0.39381668458605634 0.6170788764953613 0.8620189853453876
0.39413944909633625 0.6172478258609772 0.860243911986668
0.39456928290735904 0.6174362361431122 0.8583854711488292
0.39503897389274656 0.6176320821046829 0.8564931873451539
0.3955114277240408 0.6178287327289581 0.8545946024670342
0.39554637270170023 0.6179470926523208 0.8530200543283312
0.39348328063187865 0.6176883488893509 0.8530214030084671
0.3914273866047233 0.6174304842948913 0.8530229405073922
0.3893795452588865 0.6171736776828766 0.8530240013354624
0.387339159516471 0.616917809844017 0.8530249818348986
0.385305890395263 0.6166628062725067 0.8530261293363101
0.38502991559227606 0.6167246758937835 0.8516935155591383
0.3857596884820613 0.6169683396816253 0.8495910489453188
0.3864930554156054 0.6172130465507507 0.847480502283148
0.3872259124232911 0.6174580514431 0.8453650192876374
0.3879611033335715 0.6177038609981537 0.8432423730567833
0.3886989596780802 0.6179505348205566 0.8411123033551922
0.38944374719949715 0.6181988626718521 0.838971469829858
0.3901875527722459 0.6184474140405655 0.8368259552873016
0.3909344580142021 0.6186969190835953 0.8346725772981588
0.39168360083613296 0.6189472287893295 0.8325119884472899
0.3924366756141814 0.6191986411809921 0.8303428319458378
0.3931880681273917 0.6194501578807831 0.8281694503740292
0.39394588999237823 0.6197032392024994 0.8259855086754585
0.3947075033223063 0.619957423210144 0.8237929944070287
0.39546897390612945 0.6202119797468185 0.8215949876863525
0.3962360702872857 0.6204679816961288 0.8193869363904248
0.3970034730584774 0.6207244306802749 0.8171729784759696
0.40404634767220493 0.6165466517210006 0.8698607919156264
0.40013350351006216 0.6159671455621719 0.8711603340196301
0.3979165537635069 0.6156857520341873 0.8712423308377004
0.3962547202906257 0.6155018717050552 0.8709267121357143
0.39475744388480083 0.6153467655181885 0.8704950945845654
0.39344772316332544 0.6152245759963989 0.8699297348710563
0.3922209014748722 0.6151168406009674 0.8693062583767199
0.3910689592460259 0.6150222033262253 0.8686300866978535
0.3910165682218084 0.615122190117836 0.8671457861871994
0.39118677400211 0.6152617990970611 0.865494857222376
0.3913490963823456 0.6154002159833908 0.8638467246900597
0.39150225340453715 0.6155372321605682 0.8622023868247173
0.39168101441548975 0.6156790167093277 0.8605359967945059
0.39185736682601124 0.6158205926418304 0.8588682959689219
0.3920495369096404 0.6159651935100555 0.8571856728590271
0.3922355328705076 0.6161089301109314 0.8555045152023509
0.39248883292414016 0.6162648856639862 0.8537695815791336
0.39142762607395465 0.6161865949630737 0.8530227592338199
0.38937940157734763 0.6159319639205932 0.8530241100996058
0.38733920741031735 0.6156783610582351 0.8530249455801842
0.38530545935064664 0.6154255032539367 0.8530264556287401
0.38327914826794596 0.6151735842227936 0.8530278530867018
0.3812602113672078 0.6149225890636444 0.8530291483992154
0.38045584525154796 0.6148888975381851 0.8521055108105462
0.38042021456895336 0.6149930566549301 0.8505921851391242
0.3803845221035974 0.615097364783287 0.8490766066896085
0.38059575101376064 0.6152461975812912 0.8473681050465655
0.3813156554010694 0.6154867321252823 0.8452626123812288
0.3820383284608795 0.6157281458377838 0.8431496366405105
0.3827655752581878 0.615970766544342 0.8410277743356928
0.3834952884637588 0.6162142068147659 0.8388986206742117
0.3842208592617361 0.6164573043584823 0.8367672989424739
0.3849572730959261 0.6167027413845062 0.834622094555028
0.3856916220494355 0.6169481933116913 0.8324730752707526
0.3864283485391682 0.617194464802742 0.8303167299082157
0.38716583907551216 0.6174412727355957 0.828154316937277
0.3879084253865177 0.6176893919706344 0.8259823718763651
0.3886544349128559 0.6179385244846344 0.823802170092878
0.38940302046645525 0.6181885212659836 0.8216143899812444
0.3901556699469124 0.6184396654367447 0.8194177939618965
0.3909098710574078 0.6186914950609207 0.8172143487014454
0.4005411639617118 0.6146879255771637 0.8723898706245411
0.3982554608884499 0.6143971890211105 0.8725189609371999
0.39652153431948056 0.6142024308443069 0.8722541878227122
0.39509660478759956 0.6140614211559295 0.8717689455893871
0.3938080669774773 0.6139440596103668 0.8711873468300333
0.39262452856459285 0.6138449072837829 0.8705315508075044
0.39149990072927643 0.6137559324502945 0.8698347397509655
0.3904265145911253 0.6136758089065552 0.869102227419092
0.38963616263075007 0.6136452615261078 0.8681629279474015
0.38975075624336863 0.6137736797332763 0.8665557467978541
0.38986560628927813 0.613902336359024 0.8649455527343982
0.3899685690134147 0.6140291005373001 0.8633413528972358
0.39008099550012276 0.6141577422618866 0.8617273187339765
0.3902034381238154 0.6142883360385895 0.8601029764736945
0.3903170772583475 0.6144175887107849 0.858482340399941
0.39044705079228037 0.6145499259233475 0.8568466041544642
0.39057925132285376 0.614682874083519 0.855206261320759
0.39072350081384133 0.6148181617259979 0.8535538861347537
0.3893793057896552 0.6146902501583099 0.8530241826090347
0.3873385847903159 0.6144387930631637 0.8530254168914722
0.38530507619987653 0.614188215136528 0.8530267456664558
0.38327909664880944 0.6139385759830475 0.8530278828890242
0.3812604029425929 0.6136898308992386 0.8530290033803576
0.38084375499219647 0.6137253105640411 0.8518083378753419
0.38080843773050843 0.6138286650180816 0.8502940053440902
0.3807730145175032 0.6139321535825729 0.8487774627418513
0.3807373821149075 0.6140357613563537 0.8472587696732702
0.380701872054355 0.6141395777463913 0.8457376659029535
0.38066639599873364 0.6142435431480407 0.8442142368451144
0.38063070330294124 0.614347642660141 0.8426886444161489
0.3805948014175584 0.6144518762826919 0.8411609015208411
0.3805588744673897 0.6145562589168548 0.8396308502355491
0.380523010789547 0.6146608203649521 0.8380984051460598
0.3804871662154742 0.6147655606269836 0.8365636089594797
0.38045128912603476 0.6148704499006271 0.8350264914781312
0.38041537207064835 0.6149755179882049 0.8334870397972303
0.38037933416278336 0.6150807201862335 0.831945352235774
0.3804850134382485 0.6152115374803543 0.830288756353839
0.381212204677139 0.6154543220996856 0.8281344921015507
0.38194063145052304 0.615697717666626 0.8259737847889319
0.38266938750061197 0.6159415602684021 0.8238073297079496
0.38340251719237806 0.6161865800619125 0.8216318799053187
0.3841387311172628 0.6164325386285782 0.8194484207107218
0.3848798487064963 0.6166797935962677 0.8172554543091982
0.4024810110512683 0.613674184679985 0.8725159939449235
0.4003644557466203 0.6134156942367553 0.8725173672039841
0.39825560829527895 0.6131581276655197 0.8725188586254486
0.39615469699060446 0.6129015445709228 0.8725202675785689
0.3941976771220571 0.612669488787651 0.8724226934750574
0.3930438557805236 0.6125764310359955 0.8717445783797286
0.39195097890984276 0.6124938040971756 0.871023964266735
0.39091044529479135 0.6124201327562332 0.8702668150199744
0.38990782503713595 0.6123529434204101 0.8694834232722655
0.3889205388341983 0.6122883319854736 0.8686902320531006
0.38877269590931096 0.6123697966337204 0.8672783073241719
0.38884631842815653 0.61248998939991 0.8657005363803696
0.38892016492253545 0.6126104205846786 0.8641199347227531
0.38899389641023374 0.6127310156822204 0.8625367496819312
0.38906798437913315 0.6128518491983413 0.8609506058059753
0.38915329381668207 0.6129748582839966 0.8593533805057308
0.38923990271119624 0.613098269701004 0.8577524454664949
0.38931503777195775 0.6132198631763458 0.8561573863707846
0.3894023186506812 0.6133437812328338 0.854550462684968
0.38937925789580885 0.6134485512971878 0.8530242188637491
0.38733868057800847 0.6131993442773819 0.8530253443820431
0.38530526777526164 0.6129510164260864 0.8530266006475979
0.38327933984333107 0.6127035975456238 0.853027708067844
0.3812670415607716 0.6124582052230835 0.8530239317130877
0.38123214367130753 0.6125605911016464 0.8515108023929931
0.38119709566197024 0.6126631259918213 0.849995505709018
0.38116193425073497 0.6127657949924469 0.8484779860492719
0.38112651203077286 0.612868583202362 0.8469583457255058
0.38109117543487836 0.6129715353250503 0.8454363503118949
0.38105600534958306 0.6130746960639953 0.8439119014894418
0.3810205744555607 0.6131779760122299 0.842385332002969
0.38098497854050395 0.613281375169754 0.8408565693430473
0.3809493575606613 0.6133849531412124 0.8393254982931414
0.380913704065452 0.6134886801242828 0.8377921059484671
0.38087816546170516 0.6135926008224487 0.8362562899972731
0.38084277846739634 0.6136967003345489 0.8347179948276688
0.3808070274260874 0.6138009041547775 0.8331776385986894
0.38077124386941186 0.6139052718877792 0.8316349610749416
0.3807354128962086 0.614009803533554 0.8300899364468572
0.3806996377447507 0.6141145139932632 0.8285425051097913
0.38066363105196055 0.6142193287611007 0.8269928845920308
0.3806275327740867 0.6143243223428726 0.8254409596770401
0.38059134291112917 0.6144294500350952 0.8238867303648193
0.3805553339250043 0.6145347863435745 0.8223299533175134
0.38051931424032703 0.6146402865648269 0.8207707735539801
0.3804831513514294 0.6147459357976913 0.8192093191955391
0.3804467420200385 0.6148517042398453 0.8176456498468352
0.3804103736092317 0.6149576514959335 0.8160795479795815
0.4046055285796153 0.6126876085996628 0.872514583384263
0.4024808157505929 0.6124304294586181 0.8725161325113893
0.4003643083397912 0.6121742635965347 0.8725174695157354
0.3982553651007573 0.6119189918041229 0.872519033446629
0.39615508386666487 0.6116648226976394 0.8725199839932453
0.39406253230269306 0.61141157746315 0.8725209712808069
0.3924471315996688 0.6112399756908417 0.8721796802276488
0.39141246124589246 0.6111680179834366 0.8714176660768314
0.3904277160338355 0.6111045390367508 0.8706206505419946
0.3894656773384577 0.6110448896884918 0.8698083659930947
0.3885133052529225 0.6109868049621582 0.868990293947854
0.388001373174341 0.6110046565532684 0.8678481360702193
0.388069379905854 0.6111227035522461 0.8662760162957845
0.38813786125800265 0.611241003870964 0.8647009038911395
0.38818505372827783 0.6113558322191238 0.8631389859630646
0.38823346902920486 0.6114710330963135 0.8615735832031989
0.388297807381223 0.6115891844034195 0.8599936790976233
0.3883575691482777 0.6117067098617553 0.8584145503925027
0.3884254797272405 0.6118258446455002 0.8568266476600346
0.3884758195877419 0.6119421184062958 0.8552493195460714
0.3885480096254723 0.6120623707771301 0.8536528550088179
0.38733868057800847 0.6119598954916 0.8530253443820431
0.3853055551383392 0.611713832616806 0.8530263831193112
0.383279575587272 0.6114686340093612 0.8530275203418797
0.38165554413830216 0.6112931281328201 0.8527270703457464
0.38162095966974463 0.6113947093486786 0.8512129341658221
0.3815861734621774 0.6114964246749878 0.8496966604243397
0.3815511855156003 0.6115982592105865 0.8481782491212992
0.3815161283356814 0.6117002427577972 0.846657572135381
0.38148104609097633 0.6118023753166199 0.8451345867594785
0.3814459978512026 0.6119046866893768 0.8436092760960536
0.3814108803780869 0.6120071470737457 0.842081699749751
0.3813755904333561 0.6121097266674042 0.8405519173252154
0.38134017963614697 0.6122124701738357 0.8390198990201245
0.3813049278989562 0.6123153924942016 0.8374854144014074
0.38126982777120333 0.6124185085296631 0.83594845056428
0.38123474674722047 0.6125217884778976 0.8344091356300618
0.381199161719989 0.6126251429319381 0.832867874853004
0.3811634334885373 0.6127286314964294 0.8313243394810383
0.3811278643171041 0.6128323286771774 0.8297783377954466
0.38109238768539166 0.6129362046718597 0.8282298737889827
0.3810568194685954 0.6130402147769928 0.8266791053852887
0.38102111549815953 0.613144388794899 0.8251260752914711
0.3809850767481183 0.6132486522197723 0.8235709156216036
0.38094921887490973 0.6133531242609024 0.8220132082166509
0.3809135934976704 0.6134578049182892 0.8204529232742906
0.38087753755313325 0.6135625898838043 0.8188905812653094
0.3808414709100437 0.6136675238609314 0.8173258365401009
0.40460543279192274 0.611441558599472 0.8725146558936919
0.4024807678567467 0.6111867189407348 0.8725161687661037
0.40036435995892783 0.6109328776597976 0.872517439713413
0.3982558993836468 0.610680004954338 0.872518647549554
