0.3868609 0.5962125 0.8699372
0.3869199 0.6018975 0.8866372
0.3869199 0.60840285 0.8711372
0.3869199 0.60840285 0.8866372
0.3869981 0.6016351 0.8750122
0.3869981 0.6016351 0.8827622
0.3869981 0.6086653 0.8750122
0.3869981 0.6086653 0.8827622
0.3870762 0.60137266 0.8788872
0.3870762 0.60892767 0.8788872
0.3872324 0.6008479 0.8711372
0.3872324 0.6008479 0.8866372
0.387252 0.5908502 0.8359059
0.387252 0.5908502 0.8404434
0.387252 0.5908502 0.8449809
0.387252 0.5908502 0.8495184
0.387252 0.5908502 0.8540559
0.387252 0.5908502 0.8585934
0.387252 0.5908502 0.8631309
0.387252 0.5908502 0.8676684
0.387252 0.61945015 0.8359059
0.387252 0.61945015 0.8404434
0.387252 0.61945015 0.8449809
0.387252 0.61945015 0.8495184
0.387252 0.61945015 0.8540559
0.387252 0.61945015 0.8585934
0.387252 0.61945015 0.8631309
0.387252 0.61945015 0.8676684
0.387332 0.60059285 0.8750122
0.387332 0.60059285 0.8827622
0.3874315 0.6003378 0.8788872
0.3874315 0.6099626 0.8788872
0.3875081 0.59480256 0.8699372
0.3875081 0.61549777 0.8699372
0.3876305 0.59982765 0.8711372
0.3876305 0.59982765 0.8866372
0.3876305 0.6104727 0.8711372
0.3876305 0.6104727 0.8866372
0.3877257 0.6046318 0.8699372
0.3877257 0.6046318 0.8861401
0.3877257 0.60515016 0.8780386
0.3877257 0.6056686 0.8699372
0.3877257 0.6056686 0.8861401
0.387748 0.6043736 0.8739879
0.387748 0.6043736 0.8820893
0.387748 0.60592675 0.8739879
0.387748 0.60592675 0.8820893
0.3877508 0.5995818 0.8750122
0.3877508 0.5995818 0.8827622
0.3877508 0.61071855 0.8750122
0.3877508 0.61071855 0.8827622
0.3877703 0.60411525 0.8780386
0.3877703 0.6061851 0.8780386
0.3878148 0.6035988 0.8861401
0.3878148 0.60670155 0.8861401
0.387871 0.5993358 0.8788872
0.387871 0.6109646 0.8788872
0.3879036 0.6030881 0.8780386
0.3879036 0.6072123 0.8780386
0.3879454 0.6181282 0.8711372
0.387948 0.6028327 0.8739879
0.387948 0.6028327 0.8820893
0.387948 0.60746765 0.8739879
0.387948 0.60746765 0.8820893
0.3879924 0.60257727 0.8699372
0.3879924 0.60257727 0.8861401
0.3879924 0.60772306 0.8699372
0.3879924 0.60772306 0.8861401
0.3881115 0.5988439 0.8866372
0.3881248 0.60207605 0.8780386
0.3881248 0.6082243 0.8780386
0.3881313 0.61632526 0.8699372
0.3881395 0.58965015 0.8336372
0.3881395 0.58965015 0.8383247
0.3881395 0.58965015 0.8430122
0.3881395 0.58965015 0.8476997
0.3881395 0.58965015 0.8523872
0.3881395 0.58965015 0.8570747
0.3881395 0.58965015 0.8617622
0.3881395 0.58965015 0.8664497
0.3881395 0.58965015 0.8711372
0.3881395 0.6206502 0.8336372
0.3881395 0.6206502 0.8383247
0.3881395 0.6206502 0.8430122
0.3881395 0.6206502 0.8476997
0.3881395 0.6206502 0.8523872
0.3881395 0.6206502 0.8570747
0.3881395 0.6206502 0.8617622
0.3881395 0.6206502 0.8664497
0.3881395 0.6206502 0.8711372
0.388191 0.6018255 0.8739879
0.388191 0.6018255 0.8820893
0.388191 0.60847485 0.8739879
0.388191 0.60847485 0.8820893
0.3882517 0.5986087 0.8750122
0.3882517 0.5986087 0.8827622
0.3882517 0.61169165 0.8750122
0.3882572 0.6015748 0.8861401
0.3882572 0.60872555 0.8861401
0.388391 0.591854 0.8711372
0.3883918 0.5983735 0.8788872
0.3883918 0.61192685 0.8788872
0.3884322 0.6010868 0.8780386
0.3884322 0.6092136 0.8780386
0.3885197 0.6008428 0.8739879
0.3885197 0.6008428 0.8820893
0.3885197 0.60945755 0.8739879
0.3885197 0.60945755 0.8820893
0.3885372 0.60460305 0.8886372
0.3885372 0.6056973 0.8886372
0.3886071 0.60059875 0.8699372
0.3886071 0.60059875 0.8861401
0.3886071 0.6097016 0.8699372
0.3886071 0.6097016 0.8861401
0.3886271 0.6036064 0.8886372
0.3886271 0.606694 0.8886372
0.388672 0.5979031 0.8711372
0.388672 0.5979031 0.8866372
0.388672 0.61239725 0.8711372
0.388672 0.61239725 0.8866372
0.3888061 0.60262156 0.8886372
0.3888061 0.6076788 0.8886372
0.3888234 0.6001277 0.8780386
0.3888234 0.6101727 0.8780386
0.3888311 0.5976803 0.8750122
0.3888311 0.5976803 0.8827622
0.3888311 0.61262006 0.8827622
0.3888614 0.6187267 0.8711372
0.388887 0.59326667 0.8699372
0.3889316 0.5998921 0.8739879
0.3889316 0.5998921 0.8820893
0.3889316 0.6104083 0.8739879
0.3889316 0.6104083 0.8820893
0.3889902 0.59745747 0.8788872
0.3889902 0.61284286 0.8788872
0.3890395 0.5908502 0.8336372
0.3890395 0.5908502 0.8381747
0.3890395 0.5908502 0.8427122
0.3890395 0.5908502 0.8472497
0.3890395 0.5908502 0.8517872
0.3890395 0.5908502 0.8563247
0.3890395 0.5908502 0.8608622
0.3890395 0.5908502 0.8653997
0.3890395 0.5908502 0.8699372
0.3890395 0.61945015 0.8336372
0.3890395 0.61945015 0.8381747
0.3890395 0.61945015 0.8427122
0.3890395 0.61945015 0.8472497
0.3890395 0.61945015 0.8517872
0.3890395 0.61945015 0.8563247
0.3890395 0.61945015 0.8608622
0.3890395 0.61945015 0.8653997
0.3890395 0.61945015 0.8699372
0.3890397 0.59965646 0.8861401
0.3890397 0.61064386 0.8699372
0.3890397 0.61064386 0.8861401
0.3891493 0.61306566 0.8750122
0.3892255 0.6012292 0.8886372
0.3892255 0.6090712 0.8886372
0.3892957 0.5992057 0.8780386
0.3892957 0.61109465 0.8780386
0.3893084 0.59701186 0.8711372
0.3893084 0.61328846 0.8866372
0.3894237 0.59898025 0.8739879
0.3894237 0.59898025 0.8820893
0.3894237 0.6113201 0.8739879
0.3894237 0.6113201 0.8820893
0.3895516 0.5987549 0.8699372
0.3895516 0.5987549 0.8861401
0.3895516 0.6115455 0.8699372
0.3895516 0.6115455 0.8861401
0.3896186 0.6003088 0.8886372
0.3896186 0.60999155 0.8886372
0.3896623 0.5965941 0.8788872
0.3896623 0.6137063 0.8788872
0.3897529 0.59269816 0.8699372
0.3897529 0.61760217 0.8699372
0.3898393 0.5963852 0.8750122
0.3898393 0.5963852 0.8827622
0.3898393 0.6139152 0.8750122
0.3898393 0.6139152 0.8827622
0.3898454 0.59832776 0.8780386
0.3898454 0.6119726 0.8780386
0.3898634 0.5911342 0.8711372
0.3899923 0.5981142 0.8739879
0.3899923 0.5981142 0.8820893
0.3899923 0.6121862 0.8739879
0.3899923 0.6121862 0.8820893
0.3900162 0.59617615 0.8711372
0.3900162 0.59617615 0.8866372
0.3900162 0.6141242 0.8711372
0.3900162 0.6141242 0.8866372
0.390077 0.58965015 0.8359809
0.390077 0.58965015 0.8406684
0.390077 0.58965015 0.8453559
0.390077 0.58965015 0.8500434
0.390077 0.58965015 0.8547309
0.390077 0.58965015 0.8594184
0.390077 0.58965015 0.8641059
0.390077 0.58965015 0.8687934
0.390077 0.6206502 0.8359809
0.390077 0.6206502 0.8406684
0.390077 0.6206502 0.8453559
0.390077 0.6206502 0.8500434
0.390077 0.6206502 0.8547309
0.390077 0.6206502 0.8594184
0.390077 0.6206502 0.8641059
0.390077 0.6206502 0.8687934
0.3901392 0.59790057 0.8861401
0.3901392 0.61239976 0.8699372
0.3901392 0.61239976 0.8861401
0.3901394 0.59934646 0.8886372
0.3901394 0.61095387 0.8886372
0.3904034 0.5957891 0.8788872
0.3904034 0.61451125 0.8788872
0.3904686 0.59750026 0.8780386
0.3904686 0.61280006 0.8780386
0.3905145 0.60515016 0.8906372
0.390559 0.60424346 0.8906372
0.3906909 0.5985116 0.8886372
0.3906909 0.61178875 0.8886372
0.3906922 0.60695475 0.8906372
0.3907034 0.5922863 0.8699372
0.3907034 0.6180141 0.8699372
0.3907905 0.5954019 0.8711372
0.3907905 0.5954019 0.8866372
0.3907905 0.6148985 0.8711372
0.3907905 0.6148985 0.8866372
0.390798 0.59709996 0.8699372
0.390798 0.59709996 0.8861401
0.390798 0.61320037 0.8699372
0.390798 0.61320037 0.8861401
0.390827 0.5908502 0.8359059
0.390827 0.5908502 0.8404434
0.390827 0.5908502 0.8449809
0.390827 0.5908502 0.8495184
0.390827 0.5908502 0.8540559
0.390827 0.5908502 0.8585934
0.390827 0.5908502 0.8631309
0.390827 0.5908502 0.8676684
0.390827 0.61945015 0.8359059
0.390827 0.61945015 0.8404434
0.390827 0.61945015 0.8449809
0.390827 0.61945015 0.8495184
0.390827 0.61945015 0.8540559
0.390827 0.61945015 0.8585934
0.390827 0.61945015 0.8631309
0.390827 0.61945015 0.8676684
0.3909128 0.6024651 0.8906372
0.3909241 0.6194348 0.8711372
0.3909794 0.59691477 0.8739879
0.3909794 0.59691477 0.8820893
0.3909794 0.61338556 0.8739879
0.3909794 0.61338556 0.8820893
0.3909995 0.595225 0.8750122
0.3909995 0.595225 0.8827622
0.3909995 0.61507535 0.8750122
0.3909995 0.61507535 0.8827622
0.3910116 0.60515016 0.8894372
0.3910565 0.6042647 0.8894372
0.3910565 0.60603565 0.8894372
0.3911607 0.59672946 0.8780386
0.3911607 0.61357087 0.8780386
0.3911907 0.6033882 0.8894372
0.3911907 0.6069122 0.8894372
0.3912084 0.59504795 0.8788872
0.3912084 0.6152524 0.8788872
0.3912186 0.60868996 0.8906372
0.3913152 0.5977292 0.8886372
0.3913152 0.6125712 0.8886372
0.391413 0.6025299 0.8894372
0.391413 0.6077705 0.8894372
0.3915233 0.59635895 0.8699372
0.3915233 0.59635895 0.8861401
0.3915233 0.6139414 0.8699372
0.3915233 0.6139414 0.8861401
0.3916067 0.6007898 0.8906372
0.3916262 0.5946941 0.8866372
0.3916262 0.6156063 0.8711372
0.3917104 0.5920434 0.8699372
0.3917104 0.618257 0.8699372
0.3917209 0.6016984 0.8894372
0.3917209 0.608602 0.8894372
0.391849 0.594535 0.8750122
0.3919164 0.59602106 0.8780386
0.3919164 0.61427927 0.8780386
0.3920145 0.58965015 0.8336372
0.3920145 0.58965015 0.8383247
0.3920145 0.58965015 0.8430122
0.3920145 0.58965015 0.8476997
0.3920145 0.58965015 0.8523872
0.3920145 0.58965015 0.8570747
0.3920145 0.58965015 0.8617622
0.3920145 0.58965015 0.8664497
0.3920145 0.58965015 0.8711372
0.3920145 0.6206502 0.8336372
0.3920145 0.6206502 0.8383247
0.3920145 0.6206502 0.8430122
0.3920145 0.6206502 0.8476997
0.3920145 0.6206502 0.8523872
0.3920145 0.6206502 0.8570747
0.3920145 0.6206502 0.8617622
0.3920145 0.6206502 0.8664497
0.3920145 0.6206502 0.8711372
0.3920718 0.59437585 0.8788872
0.3920718 0.6159245 0.8788872
0.3920734 0.61028916 0.8906372
0.392113 0.5958521 0.8739879
0.392113 0.5958521 0.8820893
0.392113 0.61444825 0.8739879
0.392113 0.61444825 0.8820893
0.3922946 0.59421676 0.8827622
0.3922946 0.61608356 0.8750122
0.3922946 0.61608356 0.8827622
0.3923095 0.5956831 0.8699372
0.3923095 0.5956831 0.8861401
0.3923095 0.6146173 0.8699372
0.3923095 0.6146173 0.8861401
0.3923435 0.5967009 0.8886372
0.3923435 0.6135995 0.8886372
0.3925174 0.5940577 0.8711372
0.3925174 0.5940577 0.8866372
0.3925174 0.6162427 0.8711372
0.3925174 0.6162427 0.8866372
0.3925804 0.60014987 0.8894372
0.3925804 0.61015046 0.8894372
0.3926142 0.5992821 0.8906372
0.3926145 0.5908502 0.8336372
0.3926145 0.5908502 0.8381747
0.3926145 0.5908502 0.8427122
0.3926145 0.5908502 0.8472497
0.3926145 0.5908502 0.8517872
0.3926145 0.5908502 0.8563247
0.3926145 0.5908502 0.8608622
0.3926145 0.5908502 0.8653997
0.3926145 0.5908502 0.8699372
0.3926145 0.61945015 0.8336372
0.3926145 0.61945015 0.8381747
0.3926145 0.61945015 0.8427122
0.3926145 0.61945015 0.8472497
0.3926145 0.61945015 0.8517872
0.3926145 0.61945015 0.8563247
0.3926145 0.61945015 0.8608622
0.3926145 0.61945015 0.8653997
0.3926145 0.61945015 0.8699372
0.3927302 0.5953802 0.8780386
0.3927302 0.6149202 0.8780386
0.3929406 0.5952288 0.8739879
0.3929878 0.5937775 0.8788872
0.3929878 0.61652285 0.8788872
0.3931231 0.5994488 0.8894372
0.3931231 0.6108516 0.8894372
0.3931259 0.59607655 0.8886372
0.3931259 0.6142238 0.8886372
0.3931509 0.5950773 0.8699372
0.3931509 0.5950773 0.8861401
0.3931509 0.61522305 0.8861401
0.39319322 0.61855847 0.8711372
0.393223 0.59363735 0.8750122
0.393223 0.616663 0.8750122
0.393223 0.616663 0.8827622
0.3932238 0.6116909 0.8906372
0.3933735 0.5949445 0.8820893
0.3933735 0.61535585 0.8739879
0.3933735 0.61535585 0.8820893
0.3934582 0.61680317 0.8866372
0.3935961 0.5948117 0.8780386
0.3935961 0.61548865 0.8780386
0.393734 0.5988061 0.8894372
0.393734 0.6114943 0.8894372
0.3938187 0.5946789 0.8739879
0.3938964 0.5979999 0.8906372
0.3939501 0.59325665 0.8788872
0.3939501 0.6170437 0.8788872
0.393952 0.58965015 0.8359809
0.393952 0.58965015 0.8406684
0.393952 0.58965015 0.8453559
0.393952 0.58965015 0.8500434
0.393952 0.58965015 0.8547309
0.393952 0.58965015 0.8594184
0.393952 0.58965015 0.8641059
0.393952 0.58965015 0.8687934
0.393952 0.6206502 0.8359809
0.393952 0.6206502 0.8406684
0.393952 0.6206502 0.8453559
0.393952 0.6206502 0.8500434
0.393952 0.6206502 0.8547309
0.393952 0.6206502 0.8594184
0.393952 0.6206502 0.8641059
0.393952 0.6206502 0.8687934
0.3939608 0.5955251 0.8886372
0.3939608 0.6147753 0.8886372
0.3940413 0.5945461 0.8699372
0.3940413 0.5945461 0.8861401
0.3940413 0.6157543 0.8699372
0.3940413 0.6157543 0.8861401
0.3941961 0.5931365 0.8750122
0.3941961 0.5931365 0.8827622
0.3941961 0.6171639 0.8750122
0.3941961 0.6171639 0.8827622
0.3942745 0.5944329 0.8820893
0.3942745 0.6158675 0.8739879
0.3942745 0.6158675 0.8820893
0.394402 0.5908502 0.8359059
0.394402 0.5908502 0.8404434
0.394402 0.5908502 0.8449809
0.394402 0.5908502 0.8495184
0.394402 0.5908502 0.8540559
0.394402 0.5908502 0.8585934
0.394402 0.5908502 0.8631309
0.394402 0.5908502 0.8676684
0.394402 0.61945015 0.8359059
0.394402 0.61945015 0.8404434
0.394402 0.61945015 0.8449809
0.394402 0.61945015 0.8495184
0.394402 0.61945015 0.8540559
0.394402 0.61945015 0.8585934
0.394402 0.61945015 0.8631309
0.394402 0.61945015 0.8676684
0.394442 0.59301615 0.8711372
0.394442 0.59301615 0.8866372
0.394442 0.6172842 0.8711372
0.394442 0.6172842 0.8866372
0.3945077 0.5943197 0.8780386
0.3945077 0.6159807 0.8780386
0.3946255 0.61284125 0.8906372
0.3947409 0.59420645 0.8739879
0.3949231 0.59500426 0.8886372
0.3949231 0.61529607 0.8886372
0.3949521 0.5928172 0.8788872
0.3949521 0.6174832 0.8788872
0.3949741 0.59409326 0.8861401
0.3949741 0.61620706 0.8699372
0.3951345 0.59772205 0.8894372
0.3951345 0.6125783 0.8894372
0.3951618 0.60424346 0.8906372
0.3952072 0.6175827 0.8750122
0.3952072 0.6175827 0.8827622
0.3952162 0.5940006 0.8820893
0.3952162 0.61629975 0.8739879
0.3952284 0.60605246 0.8906372
0.3954041 0.5969924 0.8906372
0.3954105 0.6047075 0.8894372
0.3954105 0.6055929 0.8894372
0.3954582 0.5939079 0.8780386
0.3954582 0.6163925 0.8780386
0.39546221 0.6176823 0.8711372
0.39546221 0.6176823 0.8866372
0.3954776 0.60382646 0.8894372
0.3954776 0.60647386 0.8894372
0.3954916 0.60782236 0.8906372
0.3955332 0.60755587 0.8894372
0.39558882 0.6029591 0.8894372
0.3956658 0.6083941 0.8894372
0.3956856 0.60251665 0.8906372
0.3957003 0.59381515 0.8739879
0.3957003 0.6164852 0.8820893
0.3957427 0.6021142 0.8894372
0.3958435 0.59461117 0.8886372
0.3958435 0.61568916 0.8886372
0.3958895 0.58965015 0.8336372
0.3958895 0.58965015 0.8383247
0.3958895 0.58965015 0.8430122
0.3958895 0.58965015 0.8476997
0.3958895 0.58965015 0.8523872
0.3958895 0.58965015 0.8570747
0.3958895 0.58965015 0.8617622
0.3958895 0.58965015 0.8664497
0.3958895 0.58965015 0.8711372
0.3958895 0.6206502 0.8336372
0.3958895 0.6206502 0.8383247
0.3958895 0.6206502 0.8430122
0.3958895 0.6206502 0.8476997
0.3958895 0.6206502 0.8523872
0.3958895 0.6206502 0.8570747
0.3958895 0.6206502 0.8617622
0.3958895 0.6206502 0.8664497
0.3958895 0.6206502 0.8711372
0.3959098 0.59729177 0.8894372
0.395919 0.61028916 0.8906372
0.3959423 0.5937224 0.8699372
0.3959423 0.5937224 0.8861401
0.3959423 0.616578 0.8861401
0.395987 0.5924619 0.8788872
0.395987 0.6178385 0.8788872
0.3960749 0.60957515 0.8894372
0.3961894 0.60003597 0.8906372
0.3961895 0.5908502 0.8336372
0.3961895 0.5908502 0.8381747
0.3961895 0.5908502 0.8427122
0.3961895 0.5908502 0.8472497
0.3961895 0.5908502 0.8517872
0.3961895 0.5908502 0.8563247
0.3961895 0.5908502 0.8608622
0.3961895 0.5908502 0.8653997
0.3961895 0.5908502 0.8699372
0.3961895 0.61945015 0.8336372
0.3961895 0.61945015 0.8381747
0.3961895 0.61945015 0.8427122
0.3961895 0.61945015 0.8472497
0.3961895 0.61945015 0.8517872
0.3961895 0.61945015 0.8563247
0.3961895 0.61945015 0.8608622
0.3961895 0.61945015 0.8653997
0.3961895 0.61945015 0.8699372
0.3961915 0.5936509 0.8820893
0.3961915 0.61664945 0.8739879
0.3962247 0.6136961 0.8906372
0.3962494 0.5923838 0.8750122
0.3962494 0.5923838 0.8827622
0.3962494 0.6179166 0.8750122
0.3962494 0.6179166 0.8827622
0.3962897 0.6003381 0.8894372
0.3964406 0.5935793 0.8780386
0.3964406 0.6167211 0.8780386
0.3964438 0.610501 0.8894372
0.3965118 0.5923056 0.8711372
0.3965118 0.5923056 0.8866372
0.3965118 0.6179948 0.8866372
0.3966898 0.59350777 0.8739879
0.3966898 0.61679256 0.8820893
0.3967246 0.61335826 0.8894372
0.3967493 0.61117285 0.8894372
0.3968305 0.598641 0.8906372
0.3968849 0.59930277 0.8894372
0.3969389 0.6168642 0.8699372
0.3969389 0.6168642 0.8861401
0.3970477 0.5921933 0.8788872
0.3970477 0.6181071 0.8788872
0.3970794 0.59629846 0.8906372
0.3971933 0.6169141 0.8739879
0.397195 0.6115652 0.8906372
0.3972359 0.5941918 0.8886372
0.3972359 0.6161086 0.8886372
0.3974476 0.5933364 0.8780386
0.3974476 0.616964 0.8780386
0.3975706 0.59667665 0.8894372
0.3975836 0.5920809 0.8866372
0.3975836 0.6182195 0.8711372
0.3975836 0.6182195 0.8866372
0.397827 0.58965015 0.8359809
0.397827 0.58965015 0.8406684
0.397827 0.58965015 0.8453559
0.397827 0.58965015 0.8500434
0.397827 0.58965015 0.8547309
0.397827 0.58965015 0.8594184
0.397827 0.58965015 0.8641059
0.397827 0.58965015 0.8687934
0.397827 0.6206502 0.8359809
0.397827 0.6206502 0.8406684
0.397827 0.6206502 0.8453559
0.397827 0.6206502 0.8500434
0.397827 0.6206502 0.8547309
0.397827 0.6206502 0.8594184
0.397827 0.6206502 0.8641059
0.397827 0.6206502 0.8687934
0.3978553 0.5920471 0.8750122
0.3978553 0.5920471 0.8827622
0.3978553 0.6182533 0.8750122
0.3978553 0.6182533 0.8827622
0.3979563 0.59323657 0.8699372
0.3979563 0.59323657 0.8861401
0.3979563 0.61706376 0.8861401
0.3979599 0.61422247 0.8906372
0.397977 0.5908502 0.8359059
0.397977 0.5908502 0.8404434
0.397977 0.5908502 0.8449809
0.397977 0.5908502 0.8495184
0.397977 0.5908502 0.8540559
0.397977 0.5908502 0.8585934
0.397977 0.5908502 0.8631309
0.397977 0.5908502 0.8676684
0.397977 0.61945015 0.8359059
0.397977 0.61945015 0.8404434
0.397977 0.61945015 0.8449809
0.397977 0.61945015 0.8495184
0.397977 0.61945015 0.8540559
0.397977 0.61945015 0.8585934
0.397977 0.61945015 0.8631309
0.397977 0.61945015 0.8676684
0.398127 0.5920132 0.8788872
0.398127 0.6182872 0.8788872
0.3982141 0.5932088 0.8739879
0.3982141 0.5932088 0.8820893
0.3982141 0.6170916 0.8739879
0.3982141 0.6170916 0.8820893
0.3982207 0.5940128 0.8886372
0.3982207 0.6162876 0.8886372
0.3984391 0.5964982 0.8894372
0.3984391 0.6138022 0.8894372
0.3984718 0.59318095 0.8780386
0.3984718 0.6171194 0.8780386
0.3986703 0.59194547 0.8711372
0.3986703 0.59194547 0.8866372
0.3986703 0.61835486 0.8866372
0.3988578 0.5959447 0.8906372
0.3988578 0.6143557 0.8906372
0.3989439 0.5919342 0.8750122
0.3989439 0.6183662 0.8827622
0.3989872 0.5931253 0.8861401
0.3989872 0.6171751 0.8699372
0.3989872 0.6171751 0.8861401
0.3992174 0.5919229 0.8788872
0.3992174 0.59392285 0.8886372
0.3992174 0.6183775 0.8788872
0.3993212 0.6138919 0.8894372
0.3993415 0.613491 0.8894372
0.3993769 0.6127934 0.8894372
0.399491 0.59191155 0.8827622
0.399491 0.6183888 0.8750122
0.3995055 0.5931142 0.8780386
0.3995055 0.6171862 0.8780386
0.3995693 0.60899997 0.8894372
0.3996106 0.6081862 0.8894372
0.3996534 0.6073413 0.8894372
0.3996725 0.61554456 0.8877886
0.3997645 0.58965015 0.8336372
0.3997645 0.58965015 0.8383247
0.3997645 0.58965015 0.8430122
0.3997645 0.58965015 0.8476997
0.3997645 0.58965015 0.8523872
0.3997645 0.58965015 0.8570747
0.3997645 0.58965015 0.8617622
0.3997645 0.58965015 0.8664497
0.3997645 0.58965015 0.8711372
0.3997645 0.5908502 0.8336372
0.3997645 0.5908502 0.8381747
0.3997645 0.5908502 0.8427122
0.3997645 0.5908502 0.8472497
0.3997645 0.5908502 0.8517872
0.3997645 0.5908502 0.8563247
0.3997645 0.5908502 0.8608622
0.3997645 0.5908502 0.8653997
0.3997645 0.5908502 0.8699372
0.3997645 0.59190017 0.8711372
0.3997645 0.59190017 0.8866372
0.3997645 0.59629846 0.8906372
0.3997645 0.5969924 0.8906372
0.3997645 0.59772205 0.8894372
0.3997645 0.5979999 0.8906372
0.3997645 0.5992821 0.8906372
0.3997645 0.6007898 0.8906372
0.3997645 0.6016984 0.8894372
0.3997645 0.6033882 0.8894372
0.3997645 0.60424346 0.8906372
0.3997645 0.6042647 0.8894372
0.3997645 0.60603565 0.8894372
0.3997645 0.60695475 0.8906372
0.3997645 0.61015046 0.8894372
0.3997645 0.61028916 0.8906372
0.3997645 0.6108516 0.8894372
0.3997645 0.6116909 0.8906372
0.3997645 0.61284125 0.8906372
0.3997645 0.6136961 0.8906372
0.3997645 0.6138022 0.8894372
0.3997645 0.61840016 0.8711372
0.3997645 0.61840016 0.8866372
0.3997645 0.61945015 0.8336372
0.3997645 0.61945015 0.8381747
0.3997645 0.61945015 0.8427122
0.3997645 0.61945015 0.8472497
0.3997645 0.61945015 0.8517872
0.3997645 0.61945015 0.8563247
0.3997645 0.61945015 0.8608622
0.3997645 0.61945015 0.8653997
0.3997645 0.61945015 0.8699372
0.3997645 0.6206502 0.8336372
0.3997645 0.6206502 0.8383247
0.3997645 0.6206502 0.8430122
0.3997645 0.6206502 0.8476997
0.3997645 0.6206502 0.8523872
0.3997645 0.6206502 0.8570747
0.3997645 0.6206502 0.8617622
0.3997645 0.6206502 0.8664497
0.3997645 0.6206502 0.8711372
0.3997646 0.5931086 0.8739879
0.3997646 0.5931086 0.8820893
0.3997646 0.6171918 0.8739879
0.3997646 0.6171918 0.8820893
0.4000238 0.593103 0.8699372
0.4000238 0.593103 0.8861401
0.4000238 0.6171974 0.8699372
0.4000238 0.6171974 0.8861401
0.4000358 0.5997994 0.8894372
0.400038 0.59191155 0.8750122
0.400038 0.6183888 0.8827622
0.4002078 0.5964085 0.8894372
0.4003116 0.5919229 0.8788872
0.4003116 0.6163775 0.8886372
0.4003116 0.6183775 0.8788872
0.4005411 0.5931365 0.8780386
0.4005411 0.6171639 0.8780386
0.4005568 0.6154998 0.8877886
0.40058511 0.5919342 0.8827622
0.40058511 0.6183662 0.8750122
0.4006712 0.5959447 0.8906372
0.4006712 0.6143557 0.8906372
0.4007997 0.5931532 0.8739879
0.4007997 0.5931532 0.8820893
0.4007997 0.6171472 0.8739879
0.4007997 0.6171472 0.8820893
0.4008587 0.59194547 0.8866372
0.4008587 0.61835486 0.8711372
0.4008587 0.61835486 0.8866372
0.4008614 0.6122376 0.8894372
0.4010584 0.59316987 0.8699372
0.4010584 0.59316987 0.8861401
0.4010584 0.61713046 0.8861401
0.4010899 0.6138022 0.8894372
0.4013083 0.5940128 0.8886372
0.4013083 0.6162876 0.8886372
0.401402 0.5920132 0.8788872
0.401402 0.6182872 0.8788872
0.401552 0.5908502 0.8359059
0.401552 0.5908502 0.8404434
0.401552 0.5908502 0.8449809
0.401552 0.5908502 0.8495184
0.401552 0.5908502 0.8540559
0.401552 0.5908502 0.8585934
0.401552 0.5908502 0.8631309
0.401552 0.5908502 0.8676684
0.401552 0.61945015 0.8359059
0.401552 0.61945015 0.8404434
0.401552 0.61945015 0.8449809
0.401552 0.61945015 0.8495184
0.401552 0.61945015 0.8540559
0.401552 0.61945015 0.8585934
0.401552 0.61945015 0.8631309
0.401552 0.61945015 0.8676684
0.4015691 0.61422247 0.8906372
0.4015709 0.59324765 0.8780386
0.4015709 0.6170527 0.8780386
0.4016737 0.5920471 0.8750122
0.4016737 0.5920471 0.8827622
0.4016737 0.6182533 0.8750122
0.4016737 0.6182533 0.8827622
0.401702 0.58965015 0.8359809
0.401702 0.58965015 0.8406684
0.401702 0.58965015 0.8453559
0.401702 0.58965015 0.8500434
0.401702 0.58965015 0.8547309
0.401702 0.58965015 0.8594184
0.401702 0.58965015 0.8641059
0.401702 0.58965015 0.8687934
0.401702 0.6206502 0.8359809
0.401702 0.6206502 0.8406684
0.401702 0.6206502 0.8453559
0.401702 0.6206502 0.8500434
0.401702 0.6206502 0.8547309
0.401702 0.6206502 0.8594184
0.401702 0.6206502 0.8641059
0.401702 0.6206502 0.8687934
0.4018272 0.5932866 0.8739879
0.4018272 0.5932866 0.8820893
0.4018272 0.61701375 0.8739879
0.4018272 0.61701375 0.8820893
0.4019447 0.5988911 0.8906372
0.4019454 0.5920809 0.8711372
0.4019454 0.5920809 0.8866372
0.4019454 0.6182195 0.8866372
0.4019584 0.59667665 0.8894372
0.4019584 0.6136237 0.8894372
0.4020835 0.5933255 0.8861401
0.4020835 0.6169749 0.8699372
0.4020835 0.6169749 0.8861401
0.4022151 0.5987608 0.8894372
0.40227512 0.6119274 0.8894372
0.4022931 0.5941918 0.8886372
0.4022931 0.6161086 0.8886372
0.402334 0.6115652 0.8906372
0.4024496 0.59629846 0.8906372
0.4024813 0.5921933 0.8788872
0.4024813 0.6181071 0.8788872
0.4025875 0.5934471 0.8780386
0.4025875 0.6168533 0.8780386
0.4028395 0.5935079 0.8739879
0.4028395 0.5935079 0.8820893
0.4028395 0.6167925 0.8739879
0.4028395 0.6167925 0.8820893
0.4030082 0.6095189 0.8894372
0.4030172 0.5923056 0.8866372
0.4030172 0.6179948 0.8711372
0.4030172 0.6179948 0.8866372
0.4030852 0.610501 0.8894372
0.4030915 0.59356856 0.8699372
0.4030915 0.59356856 0.8861401
0.4030915 0.61673176 0.8699372
0.4030915 0.61673176 0.8861401
0.4032796 0.5923838 0.8750122
0.4032796 0.5923838 0.8827622
0.4032796 0.6179166 0.8750122
0.4032796 0.6179166 0.8827622
0.4033043 0.6136961 0.8906372
0.4033395 0.5908502 0.8336372
0.4033395 0.5908502 0.8381747
0.4033395 0.5908502 0.8427122
0.4033395 0.5908502 0.8472497
0.4033395 0.5908502 0.8517872
0.4033395 0.5908502 0.8563247
0.4033395 0.5908502 0.8608622
0.4033395 0.5908502 0.8653997
0.4033395 0.5908502 0.8699372
0.4033395 0.61945015 0.8336372
0.4033395 0.61945015 0.8381747
0.4033395 0.61945015 0.8427122
0.4033395 0.61945015 0.8472497
0.4033395 0.61945015 0.8517872
0.4033395 0.61945015 0.8563247
0.4033395 0.61945015 0.8608622
0.4033395 0.61945015 0.8653997
0.4033395 0.61945015 0.8699372
0.4033396 0.60003597 0.8906372
0.4034922 0.5999747 0.8894372
0.4035141 0.60879207 0.8894372
0.403542 0.5924619 0.8788872
0.403542 0.6178385 0.8788872
0.4035831 0.5937331 0.8780386
0.4035831 0.61656725 0.8780386
0.403591 0.60130036 0.8894372
0.40361 0.61028916 0.8906372
0.4036192 0.59729177 0.8894372
0.4036192 0.61300856 0.8894372
0.4036395 0.58965015 0.8336372
0.4036395 0.58965015 0.8383247
0.4036395 0.58965015 0.8430122
0.4036395 0.58965015 0.8476997
0.4036395 0.58965015 0.8523872
0.4036395 0.58965015 0.8570747
0.4036395 0.58965015 0.8617622
0.4036395 0.58965015 0.8664497
0.4036395 0.58965015 0.8711372
0.4036395 0.6206502 0.8336372
0.4036395 0.6206502 0.8383247
0.4036395 0.6206502 0.8430122
0.4036395 0.6206502 0.8476997
0.4036395 0.6206502 0.8523872
0.4036395 0.6206502 0.8570747
0.4036395 0.6206502 0.8617622
0.4036395 0.6206502 0.8664497
0.4036395 0.6206502 0.8711372
0.4036855 0.59461117 0.8886372
0.4036855 0.61568916 0.8886372
0.4037307 0.60797155 0.8894372
0.4037863 0.6021142 0.8894372
0.4038289 0.59381527 0.8739879
0.4038289 0.59381527 0.8820893
0.4038289 0.61648506 0.8739879
0.4038289 0.61648506 0.8820893
0.4038331 0.6172235 0.8699372
0.4038434 0.60251665 0.8906372
0.4039402 0.6029591 0.8894372
0.4039402 0.6069031 0.8894372
0.40403742 0.60782236 0.8906372
0.4040514 0.60382646 0.8894372
0.4040668 0.59261805 0.8711372
0.4040668 0.59261805 0.8866372
0.4040748 0.59389746 0.8699372
0.4040748 0.59389746 0.8861401
0.4040748 0.61640286 0.8699372
0.4040748 0.61640286 0.8861401
0.4041185 0.6055929 0.8894372
0.40412492 0.5969924 0.8906372
0.4043006 0.60605246 0.8906372
0.4043218 0.59271765 0.8750122
0.4043218 0.59271765 0.8827622
0.4043672 0.60424346 0.8906372
0.4043945 0.59772205 0.8894372
0.4045504 0.5941036 0.8780386
0.4045504 0.61619675 0.8780386
0.4045769 0.5928172 0.8788872
0.4045769 0.6174832 0.8788872
0.4046059 0.59500426 0.8886372
0.4046059 0.61529607 0.8886372
0.4047882 0.5942066 0.8739879
0.4047882 0.5942066 0.8820893
0.4047882 0.61609375 0.8739879
0.4049035 0.61284125 0.8906372
0.4050261 0.59430957 0.8699372
0.4050261 0.59430957 0.8861401
0.4050261 0.61599076 0.8699372
0.4050261 0.61599076 0.8861401
0.405087 0.59301615 0.8711372
0.405087 0.59301615 0.8866372
0.405087 0.6172842 0.8711372
0.405087 0.6172842 0.8866372
0.4051222 0.61207175 0.8894372
0.405127 0.5908502 0.8359059
0.405127 0.5908502 0.8404434
0.405127 0.5908502 0.8449809
0.405127 0.5908502 0.8495184
0.405127 0.5908502 0.8540559
0.405127 0.5908502 0.8585934
0.405127 0.5908502 0.8631309
0.405127 0.5908502 0.8676684
0.405127 0.61945015 0.8359059
0.405127 0.61945015 0.8404434
0.405127 0.61945015 0.8449809
0.405127 0.61945015 0.8495184
0.405127 0.61945015 0.8540559
0.405127 0.61945015 0.8585934
0.405127 0.61945015 0.8631309
0.405127 0.61945015 0.8676684
0.40525422 0.61586756 0.8820893
0.4053329 0.5931365 0.8750122
0.4053329 0.5931365 0.8827622
0.4053329 0.6171639 0.8750122
0.4053329 0.6171639 0.8827622
0.4054823 0.59455585 0.8780386
0.4054823 0.6157445 0.8780386
0.4055682 0.5955251 0.8886372
0.4055682 0.6147753 0.8886372
0.405577 0.58965015 0.8359809
0.405577 0.58965015 0.8406684
0.405577 0.58965015 0.8453559
0.405577 0.58965015 0.8500434
0.405577 0.58965015 0.8547309
0.405577 0.58965015 0.8594184
0.405577 0.58965015 0.8641059
0.405577 0.58965015 0.8687934
0.405577 0.6206502 0.8359809
0.405577 0.6206502 0.8406684
0.405577 0.6206502 0.8453559
0.405577 0.6206502 0.8500434
0.405577 0.6206502 0.8547309
0.405577 0.6206502 0.8594184
0.405577 0.6206502 0.8641059
0.405577 0.6206502 0.8687934
0.4055789 0.59325665 0.8788872
0.4055789 0.6170437 0.8788872
0.4055827 0.61747205 0.8699372
0.40563262 0.5979999 0.8906372
0.4057104 0.594679 0.8739879
0.4057104 0.594679 0.8820893
0.4057104 0.6156214 0.8739879
0.405795 0.5988061 0.8894372
0.4059386 0.5948021 0.8699372
0.4059386 0.5948021 0.8861401
0.4059386 0.6154983 0.8699372
0.4060708 0.59349716 0.8866372
0.4060708 0.61680317 0.8711372
0.4063052 0.6116909 0.8906372
0.406306 0.59363735 0.8750122
0.406306 0.59363735 0.8827622
0.406306 0.616663 0.8750122
0.4063358 0.59174186 0.8711372
0.4063719 0.5950867 0.8780386
0.4063719 0.6152137 0.8780386
0.4064031 0.59607655 0.8886372
0.4064031 0.6142238 0.8886372
0.4064059 0.6108516 0.8894372
0.4065412 0.5937775 0.8788872
0.4065412 0.61652285 0.8788872
0.4065886 0.59522897 0.8739879
0.4065886 0.59522897 0.8820893
0.4065886 0.61507136 0.8739879
0.4065886 0.61507136 0.8820893
0.4068053 0.5953712 0.8861401
0.4068053 0.6149292 0.8699372
0.4068053 0.6149292 0.8861401
0.4069145 0.5908502 0.8336372
0.4069145 0.5908502 0.8381747
0.4069145 0.5908502 0.8427122
0.4069145 0.5908502 0.8472497
0.4069145 0.5908502 0.8517872
0.4069145 0.5908502 0.8563247
0.4069145 0.5908502 0.8608622
0.4069145 0.5908502 0.8653997
0.4069145 0.5908502 0.8699372
0.4069145 0.61945015 0.8336372
0.4069145 0.61945015 0.8381747
0.4069145 0.61945015 0.8427122
0.4069145 0.61945015 0.8472497
0.4069145 0.61945015 0.8517872
0.4069145 0.61945015 0.8563247
0.4069145 0.61945015 0.8608622
0.4069145 0.61945015 0.8653997
0.4069145 0.61945015 0.8699372
0.4069148 0.5992821 0.8906372
0.4069486 0.60014987 0.8894372
0.4069486 0.61015046 0.8894372
0.4070116 0.5940577 0.8711372
0.4070116 0.5940577 0.8866372
0.4070116 0.6162427 0.8866372
0.4071855 0.5967009 0.8886372
0.4071855 0.6135995 0.8886372
0.40721262 0.59569186 0.8780386
0.40721262 0.61460847 0.8780386
0.4072344 0.59421676 0.8750122
0.4072344 0.59421676 0.8827622
0.4072344 0.61608356 0.8827622
0.4074176 0.6009024 0.8894372
0.4074176 0.60939795 0.8894372
0.4074556 0.61028916 0.8906372
0.4074572 0.59437585 0.8788872
0.4074572 0.6159245 0.8788872
0.4075145 0.58965015 0.8336372
0.4075145 0.58965015 0.8383247
0.4075145 0.58965015 0.8430122
0.4075145 0.58965015 0.8476997
0.4075145 0.58965015 0.8523872
0.4075145 0.58965015 0.8570747
0.4075145 0.58965015 0.8617622
0.4075145 0.58965015 0.8664497
0.4075145 0.58965015 0.8711372
0.4075145 0.6206502 0.8336372
0.4075145 0.6206502 0.8383247
0.4075145 0.6206502 0.8430122
0.4075145 0.6206502 0.8476997
0.4075145 0.6206502 0.8523872
0.4075145 0.6206502 0.8570747
0.4075145 0.6206502 0.8617622
0.4075145 0.6206502 0.8664497
0.4075145 0.6206502 0.8711372
0.4076199 0.5960126 0.8699372
0.4076199 0.5960126 0.8861401
0.4076199 0.6142878 0.8699372
0.4076199 0.6142878 0.8861401
0.40768 0.6157654 0.8750122
0.4078081 0.6016984 0.8894372
0.4078081 0.608602 0.8894372
0.407809 0.59618986 0.8739879
0.407809 0.59618986 0.8820893
0.407809 0.61411047 0.8739879
0.407809 0.61411047 0.8820893
0.4079028 0.5946941 0.8711372
0.4079028 0.6156063 0.8711372
0.4079028 0.6156063 0.8866372
0.4079223 0.6007898 0.8906372
0.4079981 0.5963672 0.8780386
0.4079981 0.6139332 0.8780386
0.408074 0.59208786 0.8699372
0.408116 0.6025299 0.8894372
0.408116 0.6077705 0.8894372
0.4082138 0.5977292 0.8886372
0.4082138 0.6125712 0.8886372
0.4083104 0.60868996 0.8906372
0.4083206 0.59504795 0.8788872
0.4083206 0.6152524 0.8788872
0.4083383 0.6033882 0.8894372
0.4083763 0.6135787 0.8699372
0.4083763 0.6135787 0.8861401
0.4084725 0.60603565 0.8894372
0.4085174 0.60515016 0.8894372
0.4085295 0.595225 0.8750122
0.4085295 0.595225 0.8827622
0.4085295 0.61507535 0.8750122
0.4085295 0.61507535 0.8827622
0.4085494 0.6133858 0.8739879
0.4085494 0.6133858 0.8820893
0.4086049 0.59086555 0.8711372
0.4086049 0.6194348 0.8711372
0.40861621 0.6024651 0.8906372
0.40870202 0.5908502 0.8359059
0.40870202 0.5908502 0.8404434
0.40870202 0.5908502 0.8449809
0.40870202 0.5908502 0.8495184
0.40870202 0.5908502 0.8540559
0.40870202 0.5908502 0.8585934
0.40870202 0.5908502 0.8631309
0.40870202 0.5908502 0.8676684
0.40870202 0.61945015 0.8359059
0.40870202 0.61945015 0.8404434
0.40870202 0.61945015 0.8449809
0.40870202 0.61945015 0.8495184
0.40870202 0.61945015 0.8540559
0.40870202 0.61945015 0.8585934
0.40870202 0.61945015 0.8631309
0.40870202 0.61945015 0.8676684
0.4087226 0.59710747 0.8780386
0.4087226 0.61319286 0.8780386
0.4087385 0.5954019 0.8711372
0.4087385 0.5954019 0.8866372
0.4087385 0.6148985 0.8711372
0.4087385 0.6148985 0.8866372
0.4088368 0.60695475 0.8906372
0.4088381 0.5985116 0.8886372
0.4088381 0.61178875 0.8886372
0.4088958 0.59730035 0.8739879
0.40897 0.60424346 0.8906372
0.4090145 0.60515016 0.8906372
0.409069 0.5974932 0.8699372
0.409069 0.5974932 0.8861401
0.409069 0.61280715 0.8699372
0.409069 0.61280715 0.8861401
0.4090696 0.59237385 0.8699372
0.4090696 0.6179265 0.8699372
0.4091256 0.5957891 0.8788872
0.4091256 0.61451125 0.8788872
0.4092249 0.5977003 0.8820893
0.4092249 0.6126001 0.8739879
0.4093809 0.5979073 0.8780386
0.4093809 0.6123931 0.8780386
0.40938962 0.59934646 0.8886372
0.40938962 0.61095387 0.8886372
0.409452 0.58965015 0.8359809
0.409452 0.58965015 0.8406684
0.409452 0.58965015 0.8453559
0.409452 0.58965015 0.8500434
0.409452 0.58965015 0.8547309
0.409452 0.58965015 0.8594184
0.409452 0.58965015 0.8641059
0.409452 0.58965015 0.8687934
0.409452 0.6206502 0.8359809
0.409452 0.6206502 0.8406684
0.409452 0.6206502 0.8453559
0.409452 0.6206502 0.8500434
0.409452 0.6206502 0.8547309
0.409452 0.6206502 0.8594184
0.409452 0.6206502 0.8641059
0.409452 0.6206502 0.8687934
0.4095128 0.59617615 0.8711372
0.4095128 0.59617615 0.8866372
0.4095128 0.6141242 0.8711372
0.4095128 0.6141242 0.8866372
0.4095368 0.5981144 0.8739879
0.4095368 0.61218596 0.8820893
0.4096656 0.6191662 0.8711372
0.4096897 0.5963852 0.8750122
0.4096897 0.5963852 0.8827622
0.4096897 0.6139152 0.8750122
0.4096897 0.6139152 0.8827622
0.4096928 0.5983214 0.8699372
0.4096928 0.5983214 0.8861401
0.4096928 0.61197895 0.8699372
0.4096928 0.61197895 0.8861401
0.4098303 0.6117593 0.8739879
0.4098667 0.5965941 0.8788872
0.4098667 0.6137063 0.8788872
0.4099104 0.6003088 0.8886372
0.4099104 0.60999155 0.8886372
0.4099679 0.5987608 0.8780386
0.4099679 0.6115396 0.8780386
0.41000152 0.5928262 0.8699372
0.41000152 0.6174742 0.8699372
0.4101055 0.5989805 0.8739879
0.4101055 0.5989805 0.8820893
0.4102206 0.59701186 0.8866372
0.4102206 0.61328846 0.8711372
0.4102431 0.5992002 0.8699372
0.4102431 0.5992002 0.8861401
0.4103035 0.6012292 0.8886372
0.4103035 0.6090712 0.8886372
0.4103797 0.59723467 0.8750122
0.4104794 0.5996616 0.8780386
0.4104794 0.6106388 0.8780386
0.4104895 0.5908502 0.8336372
0.4104895 0.5908502 0.8381747
0.4104895 0.5908502 0.8427122
0.4104895 0.5908502 0.8472497
0.4104895 0.5908502 0.8517872
0.4104895 0.5908502 0.8563247
0.4104895 0.5908502 0.8608622
0.4104895 0.5908502 0.8653997
0.4104895 0.5908502 0.8699372
0.4104895 0.61945015 0.8336372
0.4104895 0.61945015 0.8381747
0.4104895 0.61945015 0.8427122
0.4104895 0.61945015 0.8472497
0.4104895 0.61945015 0.8517872
0.4104895 0.61945015 0.8563247
0.4104895 0.61945015 0.8608622
0.4104895 0.61945015 0.8653997
0.4104895 0.61945015 0.8699372
0.4105388 0.59745747 0.8788872
0.4105388 0.61284286 0.8788872
0.4105976 0.59989226 0.8739879
0.4105976 0.59989226 0.8820893
0.4105976 0.61040807 0.8739879
0.4105976 0.61040807 0.8820893
0.4106676 0.59157366 0.8711372
0.4106676 0.6187267 0.8711372
0.4106979 0.5976803 0.8827622
0.4106979 0.61262006 0.8750122
0.4106979 0.61262006 0.8827622
0.4107158 0.600123 0.8861401
0.4107158 0.6101774 0.8699372
0.4107158 0.6101774 0.8861401
0.4107229 0.60262156 0.8886372
0.4107229 0.6076788 0.8886372
0.4108422 0.616869 0.8699372
0.410857 0.5979031 0.8711372
0.410857 0.5979031 0.8866372
0.410857 0.61239725 0.8711372
0.410857 0.61239725 0.8866372
0.4109019 0.6036064 0.8886372
0.4109019 0.606694 0.8886372
0.4109116 0.600603 0.8780386
0.4109116 0.6096974 0.8780386
0.4109918 0.60460305 0.8886372
0.4109918 0.6056973 0.8886372
0.4110095 0.60084295 0.8739879
0.4111074 0.601083 0.8699372
0.4111074 0.601083 0.8861401
0.4111074 0.6092174 0.8861401
0.4111372 0.5983735 0.8788872
0.4111372 0.61192685 0.8788872
0.4111843 0.6013306 0.8820893
0.4111843 0.60896975 0.8739879
0.4111843 0.60896975 0.8820893
0.4112612 0.60872227 0.8780386
0.4112773 0.5986087 0.8750122
0.4112773 0.61169165 0.8750122
0.4112773 0.61169165 0.8827622
0.4113895 0.58965015 0.8336372
0.4113895 0.58965015 0.8383247
0.4113895 0.58965015 0.8430122
0.4113895 0.58965015 0.8476997
0.4113895 0.58965015 0.8523872
0.4113895 0.58965015 0.8570747
0.4113895 0.58965015 0.8617622
0.4113895 0.58965015 0.8664497
0.4113895 0.58965015 0.8711372
0.4113895 0.6206502 0.8336372
0.4113895 0.6206502 0.8383247
0.4113895 0.6206502 0.8430122
0.4113895 0.6206502 0.8476997
0.4113895 0.6206502 0.8523872
0.4113895 0.6206502 0.8570747
0.4113895 0.6206502 0.8617622
0.4113895 0.6206502 0.8664497
0.4113895 0.6206502 0.8711372
0.411415 0.6082272 0.8699372
0.411415 0.6082272 0.8861401
0.4114175 0.61145645 0.8711372
0.4114175 0.61145645 0.8866372
0.4114703 0.60232645 0.8739879
0.4114703 0.6079739 0.8739879
0.4114703 0.6079739 0.8820893
0.4115257 0.60257965 0.8780386
0.4115257 0.6077207 0.8780386
0.4115667 0.5941717 0.8699372
0.4115667 0.6161287 0.8699372
0.4115836 0.5921722 0.8711372
0.4116364 0.60308605 0.8699372
0.4116364 0.60308605 0.8861401
0.4116364 0.6072143 0.8861401
0.411658 0.5993358 0.8788872
0.411658 0.6109646 0.8788872
0.4116697 0.6033432 0.8739879
0.4116697 0.6033432 0.8820893
0.4116697 0.6069572 0.8739879
0.4116697 0.6069572 0.8820893
0.4117031 0.6036002 0.8780386
0.4117031 0.6067002 0.8780386
0.4117699 0.6041143 0.8861401
0.4117699 0.6061861 0.8699372
0.4117699 0.6061861 0.8861401
0.4117782 0.5995818 0.8750122
0.4117782 0.5995818 0.8827622
0.4117782 0.61071855 0.8750122
0.4117782 0.61071855 0.8827622
0.411781 0.6043733 0.8739879
0.411781 0.6043733 0.8820893
0.411781 0.60592705 0.8739879
0.411781 0.60592705 0.8820893
0.4117922 0.60463226 0.8780386
0.4117922 0.60566807 0.8780386
0.4118145 0.60515016 0.8699372
0.4118145 0.60515016 0.8861401
0.4118985 0.59982765 0.8711372
0.4118985 0.59982765 0.8866372
0.4118985 0.6104727 0.8711372
0.4118985 0.6104727 0.8866372
0.4120975 0.6003378 0.8788872
0.4120975 0.6099626 0.8788872
0.4121538 0.5950252 0.8699372
0.4121538 0.6152752 0.8699372
0.412197 0.6097075 0.8750122
0.412197 0.6097075 0.8827622
0.412277 0.5908502 0.8359059
0.412277 0.5908502 0.8404434
0.412277 0.5908502 0.8449809
0.412277 0.5908502 0.8495184
0.412277 0.5908502 0.8540559
0.412277 0.5908502 0.8585934
0.412277 0.5908502 0.8631309
0.412277 0.5908502 0.8676684
0.412277 0.61945015 0.8359059
0.412277 0.61945015 0.8404434
0.412277 0.61945015 0.8449809
0.412277 0.61945015 0.8495184
0.412277 0.61945015 0.8540559
0.412277 0.61945015 0.8585934
0.412277 0.61945015 0.8631309
0.412277 0.61945015 0.8676684
0.4122966 0.6094525 0.8711372
0.4122966 0.6094525 0.8866372
0.4123886 0.6173872 0.8711372
0.4124528 0.60137266 0.8788872
0.4124528 0.60892767 0.8788872
0.4125309 0.6016351 0.8750122
0.4125309 0.6016351 0.8827622
0.4125309 0.6086653 0.8750122
0.4125309 0.6086653 0.8827622
0.4125859 0.61433375 0.8699372
0.4126091 0.6018975 0.8711372
0.4126091 0.6018975 0.8866372
0.4126091 0.60840285 0.8711372
0.4126091 0.60840285 0.8866372
0.4127214 0.6024334 0.8788872
0.4127214 0.607867 0.8788872
0.4128338 0.6029693 0.8866372
0.4128338 0.6073311 0.8866372
0.4128504 0.5969682 0.8699372
0.4128504 0.61333215 0.8699372
0.4128676 0.60324097 0.8750122
0.4128676 0.60324097 0.8827622
0.4128676 0.60705936 0.8827622
0.4129015 0.6035127 0.8788872
0.4129015 0.6067877 0.8788872
0.41293532 0.606516 0.8750122
0.4129692 0.604056 0.8711372
0.4129692 0.604056 0.8866372
0.4129692 0.6062444 0.8711372
0.4129692 0.6062444 0.8866372
0.4129805 0.6043296 0.8750122
0.4129805 0.6059708 0.8827622
0.4129918 0.60460305 0.8788872
0.4129918 0.6056973 0.8788872
0.4130031 0.6048767 0.8827622
0.4130031 0.6054237 0.8750122
0.4130145 0.60515016 0.8711372
0.4130145 0.60515016 0.8866372
0.4130607 0.5937767 0.8711372
0.4130607 0.6165237 0.8711372
0.4131167 0.6119895 0.8711372
0.413327 0.58965015 0.8359809
0.413327 0.58965015 0.8406684
0.413327 0.58965015 0.8453559
0.413327 0.58965015 0.8500434
0.413327 0.58965015 0.8547309
0.413327 0.58965015 0.8594184
0.413327 0.58965015 0.8641059
0.413327 0.58965015 0.8687934
0.413327 0.6206502 0.8359809
0.413327 0.6206502 0.8406684
0.413327 0.6206502 0.8453559
0.413327 0.6206502 0.8500434
0.413327 0.6206502 0.8547309
0.413327 0.6206502 0.8594184
0.413327 0.6206502 0.8641059
0.413327 0.6206502 0.8687934
0.4135815 0.61556137 0.8711372
0.4137805 0.59524906 0.8711372
0.4139368 0.6106515 0.8711372
0.4140645 0.5908502 0.8336372
0.4140645 0.5908502 0.8381747
0.4140645 0.5908502 0.8427122
0.4140645 0.5908502 0.8472497
0.4140645 0.5908502 0.8517872
0.4140645 0.5908502 0.8563247
0.4140645 0.5908502 0.8608622
0.4140645 0.5908502 0.8653997
0.4140645 0.5908502 0.8699372
0.4140645 0.59263766 0.8359059
0.4140645 0.59263766 0.8404434
0.4140645 0.59263766 0.8449809
0.4140645 0.59263766 0.8495184
0.4140645 0.59263766 0.8540559
0.4140645 0.59263766 0.8585934
0.4140645 0.59263766 0.8631309
0.4140645 0.59263766 0.8676684
0.4140645 0.5944252 0.8336372
0.4140645 0.5944252 0.8381747
0.4140645 0.5944252 0.8427122
0.4140645 0.5944252 0.8472497
0.4140645 0.5944252 0.8517872
0.4140645 0.5944252 0.8563247
0.4140645 0.5944252 0.8608622
0.4140645 0.5944252 0.8653997
0.4140645 0.5944252 0.8699372
0.4140645 0.5962127 0.8359059
0.4140645 0.5962127 0.8404434
0.4140645 0.5962127 0.8449809
0.4140645 0.5962127 0.8495184
0.4140645 0.5962127 0.8540559
0.4140645 0.5962127 0.8585934
0.4140645 0.5962127 0.8631309
0.4140645 0.5962127 0.8676684
0.4140645 0.59800017 0.8336372
0.4140645 0.59800017 0.8381747
0.4140645 0.59800017 0.8427122
0.4140645 0.59800017 0.8472497
0.4140645 0.59800017 0.8517872
0.4140645 0.59800017 0.8563247
0.4140645 0.59800017 0.8608622
0.4140645 0.59800017 0.8653997
0.4140645 0.59800017 0.8699372
0.4140645 0.59978765 0.8359059
0.4140645 0.59978765 0.8404434
0.4140645 0.59978765 0.8449809
0.4140645 0.59978765 0.8495184
0.4140645 0.59978765 0.8540559
0.4140645 0.59978765 0.8585934
0.4140645 0.59978765 0.8631309
0.4140645 0.59978765 0.8676684
0.4140645 0.6015752 0.8336372
0.4140645 0.6015752 0.8381747
0.4140645 0.6015752 0.8427122
0.4140645 0.6015752 0.8472497
0.4140645 0.6015752 0.8517872
0.4140645 0.6015752 0.8563247
0.4140645 0.6015752 0.8608622
0.4140645 0.6015752 0.8653997
0.4140645 0.6015752 0.8699372
0.4140645 0.6033627 0.8359059
0.4140645 0.6033627 0.8404434
0.4140645 0.6033627 0.8449809
0.4140645 0.6033627 0.8495184
0.4140645 0.6033627 0.8540559
0.4140645 0.6033627 0.8585934
0.4140645 0.6033627 0.8631309
0.4140645 0.6033627 0.8676684
0.4140645 0.60515016 0.8336372
0.4140645 0.60515016 0.8381747
0.4140645 0.60515016 0.8427122
0.4140645 0.60515016 0.8472497
0.4140645 0.60515016 0.8517872
0.4140645 0.60515016 0.8563247
0.4140645 0.60515016 0.8608622
0.4140645 0.60515016 0.8653997
0.4140645 0.60515016 0.8699372
0.4140645 0.6069377 0.8359059
0.4140645 0.6069377 0.8404434
0.4140645 0.6069377 0.8449809
0.4140645 0.6069377 0.8495184
0.4140645 0.6069377 0.8540559
0.4140645 0.6069377 0.8585934
0.4140645 0.6069377 0.8631309
0.4140645 0.6069377 0.8676684
0.4140645 0.6087252 0.8336372
0.4140645 0.6087252 0.8381747
0.4140645 0.6087252 0.8427122
0.4140645 0.6087252 0.8472497
0.4140645 0.6087252 0.8517872
0.4140645 0.6087252 0.8563247
0.4140645 0.6087252 0.8608622
0.4140645 0.6087252 0.8653997
0.4140645 0.6087252 0.8699372
0.4140645 0.6105127 0.8359059
0.4140645 0.6105127 0.8404434
0.4140645 0.6105127 0.8449809
0.4140645 0.6105127 0.8495184
0.4140645 0.6105127 0.8540559
0.4140645 0.6105127 0.8585934
0.4140645 0.6105127 0.8631309
0.4140645 0.6105127 0.8676684
0.4140645 0.61230016 0.8336372
0.4140645 0.61230016 0.8381747
0.4140645 0.61230016 0.8427122
0.4140645 0.61230016 0.8472497
0.4140645 0.61230016 0.8517872
0.4140645 0.61230016 0.8563247
0.4140645 0.61230016 0.8608622
0.4140645 0.61230016 0.8653997
0.4140645 0.61230016 0.8699372
0.4140645 0.6140877 0.8359059
0.4140645 0.6140877 0.8404434
0.4140645 0.6140877 0.8449809
0.4140645 0.6140877 0.8495184
0.4140645 0.6140877 0.8540559
0.4140645 0.6140877 0.8585934
0.4140645 0.6140877 0.8631309
0.4140645 0.6140877 0.8676684
0.4140645 0.6158752 0.8336372
0.4140645 0.6158752 0.8381747
0.4140645 0.6158752 0.8427122
0.4140645 0.6158752 0.8472497
0.4140645 0.6158752 0.8517872
0.4140645 0.6158752 0.8563247
0.4140645 0.6158752 0.8608622
0.4140645 0.6158752 0.8653997
0.4140645 0.6158752 0.8699372
0.4140645 0.61766267 0.8359059
0.4140645 0.61766267 0.8404434
0.4140645 0.61766267 0.8449809
0.4140645 0.61766267 0.8495184
0.4140645 0.61766267 0.8540559
0.4140645 0.61766267 0.8585934
0.4140645 0.61766267 0.8631309
0.4140645 0.61766267 0.8676684
0.4140645 0.61945015 0.8336372
0.4140645 0.61945015 0.8381747
0.4140645 0.61945015 0.8427122
0.4140645 0.61945015 0.8472497
0.4140645 0.61945015 0.8517872
0.4140645 0.61945015 0.8563247
0.4140645 0.61945015 0.8608622
0.4140645 0.61945015 0.8653997
0.4140645 0.61945015 0.8699372
0.4152645 0.58965015 0.8336372
0.4152645 0.58965015 0.8383247
0.4152645 0.58965015 0.8430122
0.4152645 0.58965015 0.8476997
0.4152645 0.58965015 0.8523872
0.4152645 0.58965015 0.8570747
0.4152645 0.58965015 0.8617622
0.4152645 0.58965015 0.8664497
0.4152645 0.58965015 0.8711372
0.4152645 0.59158766 0.8359809
0.4152645 0.59158766 0.8406684
0.4152645 0.59158766 0.8453559
0.4152645 0.59158766 0.8500434
0.4152645 0.59158766 0.8547309
0.4152645 0.59158766 0.8594184
0.4152645 0.59158766 0.8641059
0.4152645 0.59158766 0.8687934
0.4152645 0.5935252 0.8336372
0.4152645 0.5935252 0.8383247
0.4152645 0.5935252 0.8430122
0.4152645 0.5935252 0.8476997
0.4152645 0.5935252 0.8523872
0.4152645 0.5935252 0.8570747
0.4152645 0.5935252 0.8617622
0.4152645 0.5935252 0.8664497
0.4152645 0.5935252 0.8711372
0.4152645 0.5954627 0.8359809
0.4152645 0.5954627 0.8406684
0.4152645 0.5954627 0.8453559
0.4152645 0.5954627 0.8500434
0.4152645 0.5954627 0.8547309
0.4152645 0.5954627 0.8594184
0.4152645 0.5954627 0.8641059
0.4152645 0.5954627 0.8687934
0.4152645 0.5974002 0.8336372
0.4152645 0.5974002 0.8383247
0.4152645 0.5974002 0.8430122
0.4152645 0.5974002 0.8476997
0.4152645 0.5974002 0.8523872
0.4152645 0.5974002 0.8570747
0.4152645 0.5974002 0.8617622
0.4152645 0.5974002 0.8664497
0.4152645 0.5974002 0.8711372
0.4152645 0.5993377 0.8359809
0.4152645 0.5993377 0.8406684
0.4152645 0.5993377 0.8453559
0.4152645 0.5993377 0.8500434
0.4152645 0.5993377 0.8547309
0.4152645 0.5993377 0.8594184
0.4152645 0.5993377 0.8641059
0.4152645 0.5993377 0.8687934
0.4152645 0.6012752 0.8336372
0.4152645 0.6012752 0.8383247
0.4152645 0.6012752 0.8430122
0.4152645 0.6012752 0.8476997
0.4152645 0.6012752 0.8523872
0.4152645 0.6012752 0.8570747
0.4152645 0.6012752 0.8617622
0.4152645 0.6012752 0.8664497
0.4152645 0.6012752 0.8711372
0.4152645 0.60321265 0.8359809
0.4152645 0.60321265 0.8406684
0.4152645 0.60321265 0.8453559
0.4152645 0.60321265 0.8500434
0.4152645 0.60321265 0.8547309
0.4152645 0.60321265 0.8594184
0.4152645 0.60321265 0.8641059
0.4152645 0.60321265 0.8687934
0.4152645 0.60515016 0.8336372
0.4152645 0.60515016 0.8383247
0.4152645 0.60515016 0.8430122
0.4152645 0.60515016 0.8476997
0.4152645 0.60515016 0.8523872
0.4152645 0.60515016 0.8570747
0.4152645 0.60515016 0.8617622
0.4152645 0.60515016 0.8664497
0.4152645 0.60515016 0.8711372
0.4152645 0.6070877 0.8359809
0.4152645 0.6070877 0.8406684
0.4152645 0.6070877 0.8453559
0.4152645 0.6070877 0.8500434
0.4152645 0.6070877 0.8547309
0.4152645 0.6070877 0.8594184
0.4152645 0.6070877 0.8641059
0.4152645 0.6070877 0.8687934
0.4152645 0.6090252 0.8336372
0.4152645 0.6090252 0.8383247
0.4152645 0.6090252 0.8430122
0.4152645 0.6090252 0.8476997
0.4152645 0.6090252 0.8523872
0.4152645 0.6090252 0.8570747
0.4152645 0.6090252 0.8617622
0.4152645 0.6090252 0.8664497
0.4152645 0.6090252 0.8711372
0.4152645 0.6109627 0.8359809
0.4152645 0.6109627 0.8406684
0.4152645 0.6109627 0.8453559
0.4152645 0.6109627 0.8500434
